ply
format ascii 1.0
element vertex 1925
property float x
property float y
property float z
end_header
0.605328 0.863123 2.7739
0.67963 0.836692 2.72261
0.613428 0.833802 2.74801
0.643399 0.88731 2.74636
0.665907 0.877471 2.71484
0.722441 0.891437 2.70126
0.702703 0.842007 2.71719
0.726252 0.891404 2.72701
0.797791 0.884947 2.71445
0.708204 0.805773 2.71373
0.754161 0.880423 2.75371
0.825973 0.877016 2.7447
0.834473 0.810381 2.73457
0.816962 0.879789 2.71026
0.888797 0.805133 2.72515
0.864097 0.856571 2.79346
0.819916 0.848835 2.7591
0.915774 0.847673 2.78013
0.99061 0.868809 2.70697
0.997001 0.831293 2.70596
0.942564 0.833421 2.75156
0.980458 0.89081 2.7478
0.910087 0.883236 2.72972
1.01444 0.886304 2.72245
1.00527 0.877832 2.784
1.08267 0.875078 2.70454
1.00503 0.859749 2.70719
1.04824 0.826998 2.77088
1.07877 0.830446 2.71412
1.17983 0.836536 2.79047
1.15198 0.895072 2.74093
1.18637 0.845577 2.72868
1.18712 0.80531 2.7693
1.19655 0.880615 2.77361
1.13272 0.805965 2.75871
1.26941 0.879885 2.77959
1.29496 0.84616 2.74502
1.25952 0.853203 2.74703
1.28377 0.854804 2.75639
1.21967 0.853806 2.76123
1.25754 0.843035 2.71039
1.32394 0.878657 2.72527
1.35559 0.840581 2.72357
1.34266 0.897739 2.75825
1.35448 0.87235 2.77349
1.38585 0.888162 2.70278
1.37353 0.812796 2.73982
1.43648 0.882105 2.76626
1.41416 0.826926 2.75848
1.44316 0.888411 2.77658
1.49774 0.848171 2.72258
1.44376 0.809285 2.70867
1.42207 0.852958 2.71295
1.57819 0.833528 2.78598
1.57617 0.86464 2.71943
1.52458 0.830046 2.78309
1.52587 0.80347 2.72991
1.53207 0.859226 2.74259
1.59223 0.839803 2.70808
1.67787 0.839805 2.70488
1.6898 0.846188 2.72745
1.6944 0.854756 2.79336
1.68131 0.858626 2.70253
1.64824 0.805522 2.74336
1.66578 0.822819 2.73672
1.79864 0.841059 2.74698
1.70284 0.865999 2.76573
1.7784 0.834684 2.71241
1.74753 0.877074 2.76498
1.79088 0.822472 2.78284
1.7024 0.818889 2.73086
1.86918 0.817165 2.73384
1.80839 0.844416 2.70937
1.82278 0.866612 2.77258
1.87391 0.81586 2.78031
1.89113 0.834481 2.79861
1.89554 0.82387 2.72356
1.90622 0.801094 2.70768
1.96126 0.832144 2.71163
1.95667 0.859107 2.77923
1.90911 0.851495 2.72245
1.99372 0.810403 2.75515
1.91553 0.809715 2.76698
2.07114 0.813694 2.7375
2.08166 0.859649 2.71748
2.00747 0.879219 2.76819
2.01553 0.890952 2.70986
2.0766 0.82661 2.77697
2.00704 0.898016 2.75356
2.18011 0.813226 2.78587
2.16907 0.80384 2.73339
2.15876 0.863141 2.75146
2.12784 0.845015 2.73461
2.13511 0.861659 2.77056
2.14129 0.811524 2.79212
2.24751 0.80343 2.7456
2.29005 0.891889 2.76447
2.2588 0.851208 2.71061
2.25955 0.860577 2.77609
2.21073 0.893251 2.70137
2.24839 0.853255 2.779
2.37977 0.839195 2.7523
2.36791 0.827108 2.78904
2.35596 0.826528 2.75151
2.30169 0.863578 2.7634
2.38136 0.828334 2.7976
2.31397 0.834667 2.78821
2.4836 0.875858 2.75379
2.49681 0.807343 2.75748
2.45655 0.862517 2.77904
2.40985 0.861539 2.77913
2.46382 0.864029 2.78681
2.42634 0.892762 2.79181
2.55653 0.833173 2.7553
2.51086 0.825599 2.7949
2.53029 0.866319 2.79399
2.59756 0.898774 2.79049
2.54021 0.851185 2.72916
2.52378 0.852854 2.79011
2.60828 0.854733 2.73217
2.60968 0.814233 2.73418
2.6137 0.834514 2.76778
2.63272 0.879165 2.70884
2.60801 0.825439 2.7056
2.6668 0.819711 2.73037
2.70451 0.891533 2.71495
2.71749 0.875877 2.76835
2.78623 0.802282 2.79881
2.72737 0.838528 2.78947
2.77432 0.80854 2.74051
2.71944 0.843382 2.79357
2.84572 0.845509 2.72893
2.82017 0.813077 2.71472
2.85141 0.828541 2.72042
2.81796 0.852467 2.79804
2.81689 0.859584 2.79405
2.84034 0.82326 2.78888
2.90836 0.833386 2.70524
2.97312 0.847139 2.73054
2.90745 0.841241 2.73642
2.99267 0.814126 2.73774
2.99401 0.894314 2.79017
2.92765 0.871424 2.77448
3.09474 0.819713 2.76986
3.05139 0.81144 2.77722
3.00988 0.845699 2.796
3.04572 0.891688 2.78307
3.03243 0.819271 2.72408
3.01921 0.824249 2.78201
0.435577 0.481985 2.83678
0.447317 0.451852 2.8032
0.469376 0.440169 2.86935
0.464299 0.495743 2.89055
0.462759 0.412431 2.84497
0.414882 0.420042 2.84633
0.534533 0.446104 2.88695
0.581712 0.481107 2.88249
0.531525 0.421515 2.85869
0.536208 0.432719 2.88683
0.559883 0.492722 2.8438
0.57603 0.441481 2.84593
0.634761 0.459999 2.8035
0.65218 0.48853 2.83738
0.668097 0.481798 2.86081
0.688898 0.477315 2.89607
0.630649 0.403378 2.83562
0.669661 0.487273 2.81408
0.771262 0.459282 2.87589
0.766239 0.484934 2.87059
0.723847 0.430323 2.85499
0.72908 0.496782 2.85472
0.742592 0.42415 2.84482
0.744494 0.465706 2.89435
0.853618 0.456538 2.89659
0.846682 0.423221 2.84713
0.857464 0.429114 2.87008
0.844183 0.457158 2.81624
0.82027 0.422216 2.81834
0.855509 0.461138 2.8045
0.976153 0.440829 2.82456
0.927632 0.468389 2.81996
0.905435 0.461253 2.89584
0.981193 0.45769 2.88539
0.902724 0.470366 2.81528
0.988246 0.45666 2.81209
1.07206 0.438919 2.8226
1.09161 0.434023 2.83792
1.04156 0.486731 2.86125
1.0975 0.403461 2.81686
1.01411 0.495045 2.85713
1.03517 0.478126 2.8028
1.12167 0.46562 2.81578
1.16925 0.495522 2.80361
1.12383 0.401117 2.8589
1.10898 0.490899 2.81111
1.13255 0.445149 2.88046
1.10667 0.432936 2.86889
1.24507 0.412421 2.8224
1.22667 0.425037 2.88739
1.20325 0.418804 2.80712
1.28681 0.422337 2.89365
1.29452 0.475071 2.85252
1.28167 0.447034 2.80834
1.30185 0.437116 2.86627
1.34298 0.442858 2.86447
1.37365 0.495851 2.86921
1.36006 0.421166 2.84656
1.395 0.40357 2.81474
1.30801 0.401519 2.87898
1.41457 0.469461 2.83344
1.42084 0.426491 2.86081
1.40663 0.401734 2.84465
1.43491 0.465243 2.85133
1.48792 0.435602 2.81685
1.43332 0.436572 2.82544
1.57385 0.47322 2.82872
1.50151 0.422699 2.8545
1.52558 0.434963 2.88325
1.57666 0.439924 2.8305
1.55699 0.43294 2.8831
1.57581 0.458542 2.86336
1.69505 0.453808 2.84849
1.61693 0.498672 2.84714
1.61899 0.435046 2.81008
1.65458 0.436594 2.81531
1.61032 0.426546 2.87069
1.62177 0.463513 2.81802
1.73107 0.468532 2.82143
1.72346 0.45445 2.86866
1.7556 0.402398 2.80163
1.77805 0.459307 2.83744
1.71214 0.436852 2.88002
1.72482 0.448938 2.84649
1.87548 0.429386 2.86759
1.80259 0.445715 2.82479
1.85586 0.428688 2.85917
1.85502 0.413778 2.8963
1.83222 0.423369 2.85847
1.82571 0.495069 2.84183
1.90648 0.419183 2.83287
1.98131 0.460522 2.88714
1.97013 0.431427 2.80632
1.97157 0.448429 2.87876
1.96006 0.481064 2.8184
1.95291 0.462425 2.83717
2.07503 0.474429 2.8967
2.09702 0.430606 2.84153
2.00437 0.438432 2.86466
2.01764 0.477296 2.82247
2.08148 0.454558 2.88448
2.0933 0.440597 2.84128
2.17685 0.423523 2.83518
2.1246 0.434166 2.8726
2.19866 0.428552 2.84622
2.17505 0.474178 2.85284
2.12675 0.48258 2.80743
2.1787 0.447571 2.85606
2.23896 0.4111 2.89813
2.21619 0.445022 2.81836
2.20699 0.475106 2.83591
2.21794 0.419567 2.89453
2.26811 0.470764 2.80556
2.23366 0.410568 2.85293
2.39061 0.402427 2.83986
2.39393 0.47863 2.88638
2.3396 0.409621 2.81622
2.30927 0.467228 2.85976
2.34593 0.444691 2.82253
2.31802 0.420178 2.86775
2.45269 0.407597 2.87262
2.448 0.406147 2.87505
2.43743 0.401015 2.89446
2.46973 0.423781 2.88999
2.4355 0.41589 2.82173
2.49089 0.4828 2.89345
2.56948 0.422911 2.85824
2.54836 0.468782 2.8086
2.54338 0.425304 2.82195
2.56932 0.417677 2.8446
2.57106 0.462977 2.87673
2.581 0.451346 2.84566
2.68948 0.463331 2.88982
2.68184 0.407613 2.87426
2.60389 0.49678 2.82372
2.6353 0.448152 2.84563
2.6121 0.460725 2.87251
2.60549 0.481974 2.87227
2.77724 0.462783 2.82839
2.70699 0.430085 2.86482
2.79064 0.481476 2.80144
2.78131 0.435474 2.86828
2.78196 0.477663 2.81121
2.79028 0.495375 2.81365
2.82186 0.403043 2.84705
2.85892 0.412012 2.80354
2.82097 0.473181 2.8458
2.84668 0.452827 2.87706
2.89414 0.432606 2.88011
2.87458 0.43679 2.81122
2.95557 0.496738 2.8163
2.99155 0.429116 2.80239
2.9259 0.46307 2.83902
2.92038 0.469469 2.88551
2.9927 0.412062 2.88349
2.90343 0.456153 2.85561
3.02805 0.490492 2.821
3.07394 0.494066 2.84768
3.04745 0.485083 2.827
3.02702 0.401095 2.89719
3.06812 0.491948 2.89014
3.05725 0.484404 2.80235
0.476775 0.518395 2.84326
0.478488 0.572475 2.83774
0.410923 0.537252 2.86699
0.440349 0.514859 2.88684
0.41577 0.504357 2.86635
0.421063 0.544821 2.82044
0.593608 0.539539 2.89346
0.59547 0.556169 2.83564
0.522201 0.553364 2.82674
0.558125 0.567185 2.88318
0.590893 0.594582 2.8855
0.533763 0.533073 2.85249
0.677795 0.51263 2.83144
0.63404 0.584137 2.84758
0.602244 0.539119 2.87651
0.61049 0.597553 2.83243
0.655023 0.52478 2.88036
0.68211 0.578758 2.84135
0.731108 0.557154 2.81376
0.76263 0.541701 2.8829
0.76393 0.541121 2.83169
0.717524 0.514365 2.81722
0.797724 0.589297 2.89294
0.72807 0.591113 2.85297
0.857208 0.578555 2.86698
0.866762 0.582363 2.82307
0.865378 0.568197 2.82869
0.803158 0.504485 2.87451
0.87766 0.513718 2.80176
0.806191 0.523086 2.81267
0.913854 0.560567 2.80917
0.947544 0.565663 2.80165
0.920374 0.592435 2.80595
0.983907 0.551868 2.88578
0.903205 0.561854 2.88636
0.926332 0.570612 2.83303
1.08949 0.547404 2.87398
1.06461 0.54338 2.84796
1.02379 0.506285 2.80404
1.02295 0.50271 2.81253
1.08114 0.597021 2.83411
1.06996 0.515485 2.80853
1.18662 0.553505 2.85953
1.19784 0.557869 2.81848
1.15933 0.580762 2.82349
1.15762 0.560334 2.86591
1.13643 0.525969 2.87846
1.18788 0.596734 2.86632
1.22346 0.540248 2.89229
1.20559 0.504333 2.86637
1.29459 0.595313 2.84894
1.28393 0.56268 2.85731
1.23727 0.596298 2.86866
1.20782 0.545802 2.80351
1.39329 0.583512 2.88764
1.36725 0.540745 2.81718
1.37491 0.592067 2.82319
1.32658 0.590453 2.83386
1.35444 0.557815 2.81988
1.35125 0.569463 2.83809
1.43812 0.55173 2.83567
1.45753 0.588946 2.80503
1.4592 0.580046 2.88892
1.40216 0.546974 2.80433
1.40214 0.526422 2.83898
1.45633 0.52619 2.81667
1.5421 0.573975 2.84211
1.56414 0.544316 2.8563
1.55427 0.569087 2.88269
1.52287 0.58787 2.8306
1.50825 0.556996 2.84021
1.54889 0.557861 2.85256
1.67626 0.508289 2.84076
1.66559 0.573728 2.83208
1.65578 0.530655 2.83753
1.62681 0.572503 2.84814
1.69515 0.564301 2.80889
1.6114 0.553254 2.86034
1.75663 0.543444 2.8296
1.71502 0.515829 2.83539
1.79481 0.594317 2.85542
1.73832 0.568999 2.87063
1.75596 0.564386 2.83905
1.70822 0.563207 2.8351
1.83516 0.531715 2.82124
1.88702 0.556066 2.8125
1.83723 0.576135 2.85951
1.82099 0.552253 2.86805
1.87256 0.538283 2.86137
1.85414 0.581774 2.81528
1.92974 0.57368 2.86967
1.96707 0.543726 2.82218
1.93152 0.519912 2.89812
1.92765 0.577268 2.8971
1.99477 0.513437 2.88577
1.91395 0.525544 2.83788
2.08768 0.582745 2.88343
2.02464 0.516781 2.87415
2.08464 0.54486 2.82509
2.05534 0.597569 2.87814
2.09705 0.578295 2.84241
2.02869 0.548236 2.83134
2.19626 0.502351 2.81221
2.15787 0.572505 2.88661
2.10307 0.518971 2.80182
2.15633 0.534305 2.80528
2.15401 0.595383 2.87947
2.16997 0.539073 2.86166
2.28828 0.530938 2.89848
2.20188 0.534367 2.80766
2.24721 0.513228 2.80216
2.27987 0.596744 2.87324
2.28174 0.527112 2.85703
2.28103 0.551934 2.83039
2.34419 0.586501 2.80709
2.31332 0.585919 2.87564
2.35875 0.579576 2.83135
2.38173 0.504246 2.80941
2.37729 0.502358 2.86258
2.39865 0.524946 2.81608
2.48956 0.536846 2.80571
2.46938 0.527101 2.80513
2.4763 0.509662 2.86919
2.41411 0.513206 2.83071
2.41766 0.585313 2.82286
2.49155 0.527591 2.82917
2.57462 0.527189 2.83015
2.55158 0.556639 2.80705
2.56321 0.529723 2.85497
2.54385 0.564895 2.86986
2.56185 0.579142 2.80379
2.5702 0.512437 2.88899
2.64498 0.570564 2.84717
2.68929 0.571329 2.82983
2.61795 0.551249 2.85302
2.68062 0.532349 2.82189
2.67906 0.505069 2.8223
2.68201 0.567843 2.82621
2.74656 0.501815 2.85146
2.70472 0.533951 2.87942
2.71206 0.587268 2.89229
2.77454 0.5857 2.83582
2.78708 0.567991 2.88529
2.76057 0.542525 2.89714
2.82925 0.537831 2.88938
2.87397 0.582684 2.85232
2.87716 0.590146 2.84563
2.8192 0.526727 2.83691
2.89035 0.53226 2.84756
2.85164 0.569963 2.81456
2.98682 0.592918 2.89061
2.94054 0.596152 2.82524
2.93977 0.503867 2.82664
2.93777 0.540432 2.82017
2.9068 0.540249 2.80692
2.97289 0.530329 2.89809
3.06094 0.502904 2.8754
3.01554 0.504618 2.81507
3.0714 0.531003 2.82547
3.09634 0.56464 2.84346
3.00303 0.545994 2.85148
3.04222 0.57693 2.85316
0.427371 0.669338 2.84709
0.45193 0.645774 2.8612
0.486922 0.625152 2.89057
0.488663 0.606057 2.82674
0.41678 0.632274 2.87571
0.428367 0.602523 2.83255
0.511819 0.67875 2.8797
0.557105 0.641704 2.84724
0.50228 0.697948 2.89367
0.540816 0.677214 2.87184
0.583823 0.698826 2.88713
0.596775 0.695979 2.84717
0.675216 0.676733 2.83351
0.65137 0.648074 2.85421
0.630598 0.634331 2.8314
0.619521 0.648947 2.86413
0.678057 0.646073 2.80842
0.644129 0.644223 2.86256
0.769613 0.623448 2.81727
0.707483 0.686653 2.81633
0.73257 0.663701 2.81072
0.769677 0.616062 2.8488
0.773505 0.605587 2.8749
0.710255 0.618123 2.8718
0.864366 0.693731 2.89124
0.866423 0.627643 2.86934
0.865543 0.656628 2.81968
0.8361 0.647694 2.84845
0.821788 0.646828 2.82121
0.804507 0.653057 2.83842
0.939196 0.630002 2.85996
0.933942 0.624024 2.82546
0.985264 0.679197 2.81413
0.981368 0.640906 2.89669
0.989444 0.609483 2.87672
0.901579 0.64105 2.85296
1.01623 0.693741 2.80343
1.06328 0.695479 2.87967
1.0922 0.675203 2.83796
1.05718 0.62636 2.84146
1.06191 0.680806 2.86539
1.07918 0.677956 2.84473
1.16374 0.618588 2.89214
1.17138 0.68571 2.85482
1.12555 0.670032 2.82951
1.13537 0.616904 2.80207
1.13901 0.658423 2.83019
1.15442 0.637655 2.86891
1.26112 0.690473 2.88796
1.22586 0.697715 2.81732
1.29731 0.691686 2.83841
1.27778 0.611465 2.80911
1.21034 0.681836 2.84258
1.25241 0.670264 2.86014
1.31543 0.64093 2.86454
1.38244 0.674225 2.83958
1.3157 0.687519 2.83885
1.37247 0.675311 2.89644
1.36515 0.654851 2.83649
1.36461 0.634889 2.81646
1.43099 0.670915 2.8089
1.48784 0.630325 2.8718
1.42821 0.625316 2.89188
1.48353 0.666945 2.86153
1.49586 0.687462 2.85508
1.47554 0.670656 2.89674
1.59115 0.697739 2.82641
1.5959 0.653977 2.84366
1.59739 0.691622 2.82767
1.56767 0.628183 2.87946
1.57322 0.698936 2.81513
1.51196 0.697631 2.86155
1.66805 0.659944 2.81647
1.65271 0.684283 2.85834
1.62493 0.676962 2.82892
1.62097 0.671293 2.84766
1.66022 0.635661 2.81888
1.6923 0.617354 2.82019
1.76893 0.638391 2.82751
1.75758 0.639371 2.89728
1.77558 0.6853 2.85243
1.78521 0.614535 2.88304
1.78553 0.647043 2.89704
1.75398 0.646308 2.86878
1.85971 0.630667 2.88201
1.87958 0.638298 2.81307
1.85394 0.691171 2.80888
1.85206 0.60599 2.81271
1.80323 0.639022 2.80603
1.8718 0.642049 2.81824
1.98586 0.601245 2.84483
1.92432 0.677524 2.88613
1.98442 0.670647 2.88794
1.93122 0.661073 2.84027
1.97302 0.605874 2.80807
1.91914 0.666675 2.85929
2.00377 0.674934 2.81005
2.02942 0.658013 2.89365
2.08463 0.623558 2.84533
2.04156 0.641412 2.88927
2.07425 0.631419 2.86468
2.03448 0.643881 2.85921
2.18263 0.697076 2.80195
2.15817 0.628822 2.88563
2.10327 0.623348 2.87512
2.10605 0.698183 2.80516
2.14171 0.629437 2.83061
2.10532 0.605874 2.81672
2.25403 0.622971 2.82366
2.25157 0.612033 2.87354
2.23129 0.607971 2.81929
2.24706 0.685172 2.89841
2.27872 0.658176 2.82394
2.21343 0.656051 2.80625
2.31687 0.652342 2.86612
2.33887 0.629879 2.825
2.37901 0.62513 2.89327
2.35891 0.686519 2.87696
2.31662 0.631914 2.88558
2.3658 0.665797 2.88036
2.43046 0.642921 2.89212
2.42776 0.603068 2.80529
2.48478 0.693645 2.82988
2.48181 0.692026 2.80392
2.4353 0.628258 2.863
2.49659 0.638977 2.80137
2.58477 0.683258 2.83204
2.58595 0.696684 2.83277
2.50736 0.611959 2.80971
2.58434 0.660953 2.88228
2.50467 0.677579 2.87503
2.57078 0.61863 2.84792
2.61702 0.611008 2.89647
2.62295 0.63819 2.84884
2.61553 0.630455 2.82354
2.61907 0.658078 2.84039
2.657 0.615624 2.89332
2.64139 0.634371 2.87693
2.77371 0.653404 2.842
2.71843 0.675266 2.89083
2.77834 0.629791 2.88395
2.73165 0.672795 2.87782
2.76419 0.612065 2.88658
2.70154 0.632836 2.86961
2.85503 0.622895 2.89445
2.89733 0.65527 2.822
2.83806 0.662767 2.84246
2.8262 0.687118 2.81362
2.84533 0.637927 2.86712
2.81482 0.628479 2.82554
2.95559 0.647103 2.89218
2.94735 0.64848 2.87023
2.9789 0.615651 2.87383
2.95471 0.633231 2.81127
2.98987 0.654451 2.89617
2.95323 0.678245 2.85433
3.02112 0.613379 2.81178
3.02322 0.684013 2.88858
3.05867 0.693018 2.81321
3.01245 0.682387 2.81721
3.03845 0.688312 2.85331
3.04625 0.61736 2.819
0.491511 0.757826 2.89092
0.417551 0.792873 2.84599
0.451503 0.74248 2.84863
0.490254 0.744405 2.80654
0.422588 0.726438 2.81442
0.42386 0.77355 2.82688
0.577549 0.724632 2.86078
0.596256 0.797436 2.84237
0.529135 0.735761 2.84535
0.560911 0.785934 2.81029
0.598096 0.788305 2.81279
0.5416 0.712656 2.88257
0.628451 0.763587 2.86393
0.645111 0.786007 2.8026
0.691148 0.713048 2.8793
0.627694 0.732264 2.85137
0.605403 0.755318 2.8067
0.602998 0.727346 2.8738
0.724548 0.707583 2.80613
0.781274 0.788635 2.80619
0.714681 0.752959 2.85125
0.793696 0.775963 2.88624
0.748665 0.79188 2.87226
0.734037 0.768662 2.88142
0.898186 0.759723 2.85502
0.844474 0.702371 2.81978
0.891312 0.732815 2.84276
0.828539 0.792093 2.85175
0.875688 0.743165 2.81213
0.825812 0.716947 2.81697
0.908586 0.719177 2.88311
0.935756 0.770008 2.8873
0.955572 0.766418 2.84141
0.980559 0.727442 2.84149
0.901573 0.78217 2.83972
0.92188 0.787299 2.87319
1.05105 0.763119 2.81454
1.04748 0.739096 2.82129
1.01785 0.726701 2.89291
1.04076 0.768204 2.87998
1.0463 0.730662 2.86907
1.00398 0.75835 2.80982
1.13902 0.772556 2.87199
1.14457 0.746863 2.83041
1.19667 0.786503 2.81766
1.13731 0.715645 2.833
1.19045 0.731445 2.87579
1.13716 0.726027 2.83052
1.26846 0.730008 2.86592
1.25934 0.793743 2.81853
1.22863 0.785952 2.85814
1.29632 0.701751 2.83086
1.28645 0.761917 2.80763
1.29725 0.788945 2.89096
1.3744 0.734529 2.829
1.30442 0.714457 2.83002
1.32799 0.716664 2.83585
1.33966 0.784132 2.89404
1.30576 0.739735 2.88379
1.3731 0.728397 2.83254
1.45569 0.748794 2.83116
1.48208 0.701394 2.84115
1.45465 0.742296 2.88098
1.48422 0.784425 2.81668
1.4778 0.746258 2.85123
1.41267 0.778451 2.88511
1.50817 0.727536 2.81017
1.56584 0.774904 2.88477
1.50582 0.706151 2.80347
1.52092 0.748065 2.89793
1.59221 0.738756 2.86159
1.55282 0.789945 2.86418
1.63424 0.747506 2.87729
1.65328 0.731455 2.85121
1.66525 0.747513 2.87941
1.6184 0.743298 2.80586
1.68866 0.718802 2.80935
1.67954 0.706958 2.89397
1.76216 0.722517 2.89469
1.73319 0.741926 2.8071
1.75785 0.769144 2.83473
1.72901 0.72094 2.88918
1.70361 0.789814 2.83187
1.78135 0.717371 2.87151
1.87053 0.73796 2.84336
1.81747 0.724563 2.80501
1.86709 0.757482 2.88218
1.84282 0.745679 2.83429
1.87771 0.778627 2.81917
1.83498 0.703921 2.83687
1.9292 0.745979 2.89755
1.99713 0.748136 2.82776
1.97189 0.704418 2.82492
1.96915 0.702422 2.88235
1.92723 0.74337 2.87345
1.90151 0.718734 2.86852
2.07385 0.737091 2.87888
2.05969 0.770449 2.80207
2.03294 0.714519 2.85624
2.02227 0.76958 2.83582
2.04598 0.720266 2.88002
2.07713 0.78836 2.87679
2.15183 0.734434 2.85255
2.19852 0.71761 2.82136
2.10238 0.757935 2.88726
2.16591 0.7898 2.81839
2.1272 0.756467 2.829
2.19291 0.721324 2.814
2.23703 0.757703 2.85309
2.20685 0.786693 2.84231
2.24426 0.764331 2.81812
2.22219 0.798141 2.83416
2.20368 0.772044 2.88131
2.276 0.784509 2.81184
2.36132 0.707368 2.82019
2.34099 0.769919 2.88351
2.36713 0.757864 2.8662
2.32847 0.70699 2.81462
2.31108 0.783414 2.86607
2.35995 0.701347 2.86772
2.4049 0.745863 2.8299
2.48806 0.758035 2.84161
2.41412 0.792983 2.81773
2.48012 0.708273 2.81603
2.42869 0.781312 2.8848
2.47781 0.763391 2.8417
2.55248 0.726596 2.81243
2.53682 0.721136 2.89289
2.55394 0.77698 2.87945
2.59749 0.748981 2.86011
2.50794 0.740764 2.89701
2.54053 0.765185 2.88796
2.65473 0.723398 2.88066
2.6572 0.765625 2.8329
2.60301 0.789301 2.81927
2.6929 0.743058 2.87363
2.63582 0.782586 2.80507
2.61536 0.782388 2.86321
2.70501 0.759512 2.86916
2.76761 0.78289 2.89532
2.76393 0.715011 2.852
2.71185 0.790001 2.89362
2.75671 0.786989 2.86189
2.73247 0.728695 2.85657
2.84652 0.793958 2.86994
2.86421 0.737311 2.80449
2.80706 0.748741 2.80401
2.85334 0.794789 2.8151
2.83939 0.757525 2.82592
2.85773 0.71901 2.88729
2.97857 0.715554 2.87826
2.93391 0.7151 2.89463
2.90906 0.714726 2.87344
2.9831 0.737321 2.89451
2.93608 0.748449 2.81952
2.95417 0.789834 2.83883
3.03355 0.764856 2.80696
3.09889 0.752533 2.81441
3.0716 0.75102 2.89255
3.04488 0.786554 2.80115
3.06228 0.773002 2.8056
3.0191 0.722822 2.85724
0.482209 0.88962 2.81529
0.428739 0.820599 2.83424
0.457058 0.87588 2.81519
0.496858 0.870987 2.88929
0.476103 0.89759 2.86607
0.485721 0.892666 2.83282
0.57222 0.862808 2.87392
0.585664 0.88829 2.83265
0.517025 0.827379 2.83387
0.590048 0.896968 2.82754
0.596056 0.877639 2.82176
0.52086 0.843196 2.81445
0.607677 0.853998 2.85798
0.605037 0.836518 2.84088
0.656314 0.832466 2.81474
0.620304 0.802438 2.80512
0.636671 0.846127 2.8406
0.63585 0.801217 2.89199
0.729686 0.862524 2.81597
0.718339 0.874759 2.88719
0.748954 0.863556 2.80998
0.784658 0.883956 2.80965
0.711285 0.837429 2.88024
0.796631 0.894235 2.84444
0.885364 0.886894 2.88
0.861558 0.86986 2.87209
0.890623 0.806681 2.81798
0.805643 0.898213 2.87229
0.8264 0.88767 2.89621
0.890598 0.822758 2.85861
0.902665 0.896889 2.81354
0.992657 0.808196 2.86312
0.905384 0.836456 2.81372
0.916626 0.808748 2.80932
0.983915 0.812091 2.84089
0.912532 0.80664 2.86229
1.09793 0.807113 2.86933
1.02836 0.886872 2.89771
1.05845 0.868056 2.87246
1.09025 0.836904 2.89378
1.03559 0.890166 2.87085
1.04073 0.832285 2.84615
1.19031 0.806704 2.88088
1.16119 0.81993 2.8063
1.11372 0.857005 2.89721
1.1932 0.86185 2.80364
1.14603 0.875171 2.89696
1.12919 0.862861 2.86076
1.25244 0.831837 2.84471
1.22971 0.882664 2.86279
1.26464 0.835335 2.89603
1.20806 0.894163 2.8554
1.26861 0.814388 2.89479
1.27945 0.885684 2.81032
1.37255 0.84852 2.81178
1.37769 0.897851 2.81429
1.36413 0.867743 2.82869
1.35907 0.816712 2.86259
1.323 0.839403 2.88864
1.30182 0.821655 2.85847
1.41394 0.826047 2.89304
1.44604 0.839325 2.87874
1.48061 0.882678 2.8637
1.47678 0.858437 2.86339
1.44 0.833276 2.87236
1.45812 0.826905 2.86696
1.51495 0.897482 2.89023
1.50783 0.823998 2.89137
1.53975 0.804257 2.83387
1.51 0.897369 2.84265
1.55363 0.886938 2.85917
1.52082 0.89144 2.87685
1.66354 0.848909 2.81038
1.60205 0.822962 2.88536
1.62674 0.859717 2.84555
1.69371 0.86373 2.88289
1.61328 0.883858 2.80401
1.64614 0.852632 2.81972
1.79238 0.831933 2.81338
1.79323 0.882699 2.85378
1.75876 0.820811 2.87318
1.70253 0.821 2.80946
1.79879 0.875729 2.84867
1.71591 0.852202 2.83571
1.81155 0.82701 2.82208
1.8734 0.806032 2.82688
1.85488 0.842366 2.84856
1.83903 0.829404 2.84178
1.82871 0.812323 2.86873
1.82891 0.86756 2.88522
1.9792 0.85522 2.85841
1.94432 0.854555 2.80641
1.9611 0.84685 2.87034
1.99435 0.870081 2.85723
1.98812 0.816551 2.8904
1.96393 0.877149 2.89677
2.00727 0.868743 2.8165
2.07764 0.8665 2.8926
2.0268 0.854613 2.88192
2.07462 0.878465 2.84517
2.03623 0.883503 2.80788
2.07872 0.892533 2.89203
2.15691 0.810476 2.81505
2.12159 0.803269 2.83868
2.16012 0.871667 2.8111
2.10768 0.846128 2.89034
2.15325 0.811185 2.81944
2.14167 0.868961 2.85101
2.29065 0.822007 2.88528
2.26315 0.874884 2.85874
2.20482 0.881558 2.81294
2.20654 0.869515 2.85162
2.28817 0.80805 2.84544
2.21493 0.833781 2.83155
2.33216 0.823157 2.80399
2.36504 0.890811 2.85242
2.3946 0.873064 2.8076
2.36928 0.846866 2.82179
2.30951 0.841829 2.85381
2.35677 0.847355 2.85181
2.41324 0.892416 2.83257
2.46192 0.855273 2.88136
2.42904 0.82702 2.80815
2.43492 0.876226 2.80343
2.44416 0.855984 2.83172
2.4531 0.823542 2.81429
2.52788 0.807801 2.80606
2.58887 0.871656 2.85366
2.56616 0.815816 2.83071
2.56178 0.855262 2.89688
2.52841 0.825203 2.83711
2.53606 0.866565 2.86953
2.65301 0.844217 2.84715
2.6895 0.848898 2.83712
2.60311 0.838628 2.87
2.64347 0.815453 2.89894
2.64687 0.868806 2.80866
2.6481 0.825181 2.82662
2.72404 0.82794 2.80396
2.71747 0.882581 2.84636
2.76955 0.874402 2.83963
2.75962 0.887087 2.85672
2.7857 0.88412 2.88821
2.76781 0.805765 2.86426
2.87079 0.892178 2.82665
2.8051 0.888826 2.88222
2.842 0.872979 2.87039
2.87671 0.809843 2.85132
2.85154 0.875127 2.87809
2.83254 0.813913 2.87013
2.99687 0.896954 2.82742
2.94798 0.84618 2.82807
2.96409 0.87037 2.89053
2.93964 0.864309 2.82582
2.92028 0.894349 2.8746
2.99431 0.856088 2.89565
3.03627 0.87598 2.84491
3.06965 0.838057 2.83585
3.06842 0.875588 2.8127
3.09358 0.874164 2.81002
3.00236 0.837473 2.83581
3.09611 0.811976 2.83206
0.437086 0.402304 2.93692
0.440385 0.467341 2.9248
0.456768 0.455551 2.97599
0.486782 0.415714 2.91571
0.489627 0.483948 2.97668
0.440597 0.474912 2.92554
0.527848 0.497642 2.99437
0.507028 0.453138 2.97647
0.501786 0.429384 2.96491
0.506591 0.481849 2.97664
0.504333 0.498704 2.94313
0.521931 0.41247 2.93914
0.683944 0.482779 2.97531
0.698491 0.409769 2.98417
0.688884 0.464713 2.92328
0.685331 0.491561 2.9824
0.63831 0.462342 2.92941
0.616019 0.433378 2.9706
0.743332 0.497348 2.98767
0.742237 0.498689 2.95926
0.729367 0.491307 2.99768
0.72226 0.473728 2.95442
0.723861 0.485275 2.90456
0.78416 0.460797 2.92398
0.8374 0.420595 2.99365
0.822948 0.435949 2.94401
0.890819 0.466361 2.97353
0.83314 0.445626 2.91031
0.878122 0.403536 2.9227
0.80102 0.463927 2.98157
0.915187 0.497741 2.92931
0.915166 0.425919 2.9639
0.905629 0.484512 2.99356
0.935594 0.428315 2.90556
0.956978 0.435239 2.9309
0.927361 0.421247 2.99276
1.0607 0.430136 2.97349
1.09406 0.420937 2.90711
1.07944 0.497776 2.90304
1.07962 0.485322 2.97911
1.0323 0.410914 2.98735
1.0825 0.454236 2.92386
1.19761 0.455107 2.98285
1.16111 0.455375 2.94362
1.14521 0.402699 2.9575
1.11119 0.468193 2.94597
1.11731 0.40738 2.99295
1.12144 0.405132 2.92088
1.29406 0.419066 2.92095
1.25185 0.466791 2.90706
1.25823 0.462455 2.96092
1.28354 0.498599 2.98696
1.20542 0.466498 2.98768
1.25406 0.462819 2.94751
1.38514 0.436661 2.99399
1.32451 0.446555 2.95562
1.35908 0.493438 2.92406
1.347 0.43797 2.95674
1.35763 0.491073 2.98075
1.32999 0.420799 2.93386
1.47341 0.486166 2.97303
1.41822 0.426126 2.95567
1.46232 0.436185 2.91338
1.43946 0.433708 2.95609
1.41143 0.425857 2.90558
1.48625 0.47625 2.96905
1.51247 0.462643 2.94512
1.53559 0.438533 2.92484
1.515 0.495972 2.99187
1.55896 0.477103 2.98222
1.52063 0.437762 2.97466
1.52367 0.477043 2.91939
1.66516 0.456291 2.98116
1.64576 0.440687 2.97251
1.65466 0.451763 2.93
1.61076 0.430276 2.91661
1.6447 0.460128 2.94457
1.61261 0.403623 2.91478
1.74214 0.453058 2.91708
1.75739 0.475014 2.92513
1.76475 0.459972 2.93474
1.75659 0.435592 2.90188
1.70352 0.405151 2.95999
1.78635 0.421153 2.98664
1.80917 0.464524 2.99654
1.89534 0.455655 2.97652
1.89771 0.40497 2.98073
1.87178 0.460232 2.94205
1.88941 0.471784 2.90579
1.87543 0.437419 2.90841
1.92366 0.458924 2.96177
1.94504 0.475403 2.97825
1.9038 0.416028 2.97168
1.97931 0.498556 2.92146
1.90118 0.446432 2.93807
1.9646 0.411287 2.95897
2.06426 0.465973 2.91704
2.02318 0.460724 2.94602
2.0073 0.420762 2.98215
2.0205 0.457653 2.90489
2.00236 0.465567 2.92025
2.06016 0.454175 2.91949
2.12803 0.44167 2.93871
2.18887 0.455477 2.92067
2.12553 0.444997 2.94729
2.11503 0.424797 2.90709
2.18997 0.447992 2.97074
2.17591 0.425502 2.90902
2.23752 0.44612 2.95307
2.22277 0.417993 2.95708
2.22886 0.402582 2.96813
2.27539 0.445089 2.94469
2.25236 0.49768 2.92112
2.20212 0.427225 2.9072
2.35973 0.452838 2.94857
2.3416 0.48336 2.91465
2.37351 0.424193 2.9907
2.3949 0.48104 2.93669
2.38981 0.456956 2.95682
2.38589 0.479673 2.90531
2.44655 0.444317 2.92034
2.40548 0.433061 2.91956
2.46678 0.413725 2.90988
2.45189 0.479621 2.99444
2.41698 0.42967 2.96554
2.45256 0.407621 2.96128
2.51144 0.479853 2.93431
2.56409 0.448777 2.96726
2.56799 0.45342 2.98523
2.51532 0.468045 2.98765
2.54822 0.435198 2.90647
2.5918 0.488677 2.93324
2.67399 0.423594 2.90951
2.69851 0.407809 2.9315
2.6361 0.418867 2.99547
2.63 0.406506 2.90995
2.6158 0.494332 2.92187
2.69193 0.457458 2.90621
2.73547 0.492995 2.90872
2.76007 0.471296 2.92348
2.77668 0.473213 2.92239
2.77914 0.441916 2.95388
2.76808 0.478561 2.99585
2.78328 0.475518 2.96143
2.85125 0.444602 2.92167
2.88582 0.406986 2.96184
2.8396 0.47993 2.95965
2.82415 0.408547 2.90878
2.82125 0.497795 2.94693
2.83423 0.459766 2.96395
2.91095 0.48277 2.9758
2.91776 0.404733 2.95209
2.96013 0.444622 2.9377
2.92271 0.416157 2.98568
2.95284 0.480357 2.94856
2.99561 0.479417 2.94042
3.07437 0.483947 2.91004
3.01018 0.493313 2.96339
3.07063 0.423888 2.92411
3.08448 0.413165 2.93519
3.04332 0.49523 2.97364
3.06617 0.442567 2.98065
0.417523 0.574591 2.94606
0.436392 0.584693 2.99436
0.423387 0.583821 2.96375
0.405431 0.533214 2.98137
0.430634 0.594793 2.96377
0.493443 0.520314 2.93289
0.583613 0.560511 2.97216
0.591014 0.512273 2.97615
0.587987 0.518874 2.95379
0.511687 0.554078 2.9886
0.507835 0.508021 2.97265
0.545392 0.58363 2.95929
0.642528 0.598864 2.92996
0.660261 0.593629 2.9188
0.637876 0.595602 2.92319
0.618752 0.51442 2.9021
0.614774 0.565896 2.99235
0.618719 0.577649 2.95575
0.701077 0.598581 2.94837
0.767876 0.524129 2.96034
0.707863 0.540012 2.92491
0.741909 0.524745 2.91859
0.706209 0.58195 2.93911
0.723306 0.526493 2.98347
0.898459 0.523194 2.92605
0.891182 0.523621 2.90177
0.870653 0.558961 2.98896
0.83622 0.554282 2.90498
0.890707 0.589856 2.90467
0.812146 0.59653 2.96745
0.979937 0.582375 2.91666
0.985878 0.515719 2.99713
0.96514 0.596502 2.98824
0.988791 0.581121 2.98563
0.986864 0.506337 2.9204
0.954382 0.51082 2.94708
1.02129 0.520675 2.97755
1.06412 0.510419 2.99848
1.01596 0.569958 2.91097
1.03966 0.525451 2.92669
1.00266 0.505032 2.92841
1.00636 0.552221 2.98753
1.16659 0.518406 2.97997
1.17809 0.503202 2.98908
1.11126 0.52345 2.93872
1.10359 0.506425 2.91071
1.11162 0.59672 2.94075
1.1738 0.508361 2.99762
1.22416 0.53985 2.94687
1.26047 0.505068 2.9462
1.23913 0.552335 2.90346
1.20355 0.503673 2.90383
1.27174 0.538329 2.94771
1.2291 0.59835 2.93222
1.30311 0.562692 2.91666
1.36693 0.593974 2.96539
1.31877 0.565257 2.97571
1.36876 0.59685 2.95936
1.34734 0.536891 2.99839
1.36265 0.555303 2.95255
1.44587 0.532566 2.9165
1.47355 0.55312 2.96606
1.4987 0.536242 2.99372
1.42808 0.517777 2.92499
1.44667 0.55525 2.97192
1.43656 0.565984 2.96373
1.52529 0.57861 2.97387
1.58938 0.535653 2.95578
1.58682 0.546326 2.93608
1.58031 0.593972 2.94369
1.55131 0.535419 2.96357
1.56219 0.564019 2.98633
1.66247 0.574688 2.92066
1.61232 0.52289 2.99584
1.6727 0.583654 2.98863
1.69384 0.58756 2.91969
1.67846 0.541065 2.929
1.60779 0.559381 2.97897
1.7147 0.543137 2.96586
1.74822 0.530205 2.99878
1.70206 0.597639 2.98957
1.73037 0.518684 2.90577
1.7255 0.540313 2.90201
1.79632 0.569682 2.96252
1.86021 0.514196 2.95934
1.81184 0.56554 2.96384
1.87316 0.512552 2.92835
1.81621 0.564714 2.93621
1.88976 0.569663 2.93757
1.89776 0.518105 2.97899
1.92579 0.573133 2.94665
1.94152 0.502003 2.98271
1.90371 0.544182 2.92569
1.97934 0.571954 2.94286
1.99105 0.587109 2.92272
1.93526 0.565594 2.94162
2.09656 0.539068 2.92329
2.05959 0.518101 2.98635
2.02571 0.545655 2.94385
2.07868 0.508668 2.94386
2.04362 0.559076 2.99043
2.00247 0.504466 2.94497
2.12294 0.571192 2.99846
2.17727 0.596774 2.93353
2.13019 0.5516 2.91479
2.15578 0.50757 2.98226
2.19396 0.571711 2.99753
2.13544 0.554545 2.90639
2.29159 0.5074 2.98195
2.26335 0.56376 2.92779
2.24716 0.50155 2.96654
2.26635 0.503006 2.91971
2.21105 0.564205 2.98124
2.25869 0.514307 2.98578
2.38277 0.594569 2.94721
2.3886 0.545348 2.9679
2.33347 0.570718 2.91538
2.37434 0.536122 2.9232
2.38746 0.520384 2.96411
2.36505 0.580873 2.95516
2.4297 0.592727 2.99102
2.44663 0.55708 2.97108
2.43672 0.577301 2.95613
2.47099 0.558303 2.9583
2.43659 0.576834 2.91174
2.48506 0.58882 2.94558
2.51019 0.547004 2.97459
2.56443 0.582352 2.94394
2.59018 0.509891 2.96484
2.58322 0.578767 2.91771
2.53091 0.589808 2.9812
2.56376 0.554158 2.97948
2.61777 0.580624 2.94088
2.63974 0.538 2.97282
2.62972 0.583234 2.92801
2.60338 0.504461 2.96533
2.65278 0.506131 2.92037
2.6128 0.540231 2.96151
2.70188 0.560185 2.97485
2.76595 0.566431 2.96322
2.78848 0.589561 2.92961
2.73298 0.560132 2.91592
2.77333 0.502884 2.95301
2.72236 0.584621 2.97347
2.88581 0.596279 2.90318
2.85323 0.567407 2.95336
2.84207 0.542018 2.98313
2.86248 0.539418 2.97327
2.84162 0.50347 2.98399
2.85201 0.579412 2.91798
2.97564 0.507379 2.95708
2.99279 0.505052 2.93142
2.96349 0.523042 2.92321
2.98398 0.516596 2.99142
2.97902 0.521391 2.91338
2.973 0.504789 2.9345
3.06509 0.593249 2.95946
3.02513 0.591128 2.99345
3.05954 0.582754 2.99692
3.03997 0.53478 2.96434
3.05137 0.586732 2.99867
3.04628 0.584132 2.93467
0.401018 0.696568 2.99375
0.424793 0.630725 2.98006
0.46036 0.645207 2.92607
0.457874 0.631353 2.93449
0.401287 0.67427 2.98632
0.490056 0.671534 2.97559
0.562941 0.68332 2.96626
0.521689 0.617339 2.95452
0.544597 0.606398 2.96555
0.574412 0.629675 2.94573
0.528601 0.604587 2.92068
0.575851 0.67904 2.93682
0.608679 0.625847 2.93517
0.664835 0.609287 2.97421
0.612598 0.63508 2.90109
0.602235 0.602716 2.91782
0.625142 0.668709 2.98267
0.668953 0.618206 2.91009
0.762461 0.668083 2.96347
0.776041 0.694223 2.93293
0.714359 0.646904 2.96563
0.785522 0.665634 2.92292
0.782712 0.661832 2.92705
0.730019 0.651042 2.94521
0.860723 0.677305 2.95661
0.829063 0.681155 2.92278
0.883213 0.674715 2.91359
0.853134 0.655844 2.9515
0.831062 0.624082 2.95535
0.836657 0.695108 2.99462
0.959787 0.67179 2.93922
0.996589 0.651383 2.96256
0.912033 0.653256 2.9315
0.918638 0.641347 2.96569
0.909527 0.613778 2.99744
0.932768 0.697651 2.98524
1.03266 0.6358 2.93919
1.003 0.637968 2.93975
1.02377 0.696402 2.97236
1.0244 0.673279 2.93954
1.07216 0.637673 2.92874
1.06147 0.616759 2.92578
1.184 0.6215 2.9611
1.1228 0.647699 2.95103
1.19642 0.643979 2.94362
1.18181 0.637207 2.93784
1.15269 0.639664 2.98601
1.11569 0.647061 2.93423
1.29321 0.616681 2.95773
1.29335 0.694497 2.92362
1.2548 0.631142 2.97449
1.22543 0.685227 2.95842
1.22499 0.680133 2.97713
1.20326 0.677646 2.99561
1.36367 0.666595 2.94346
1.39412 0.634084 2.97491
1.39463 0.687424 2.97248
1.35597 0.684345 2.94537
1.39887 0.641902 2.97677
1.35524 0.630493 2.94206
1.48054 0.697428 2.91535
1.47681 0.684268 2.9975
1.47341 0.677451 2.97235
1.46947 0.676054 2.961
1.42866 0.625202 2.99696
1.49214 0.659381 2.96755
1.56484 0.670358 2.90815
1.51415 0.607648 2.91937
1.56069 0.68211 2.96167
1.56996 0.653624 2.98408
1.56824 0.6234 2.97012
1.5326 0.657161 2.95513
1.60497 0.686372 2.99644
1.65945 0.630396 2.92702
1.6412 0.666089 2.99895
1.67145 0.66436 2.90934
1.66844 0.696313 2.99309
1.68479 0.609908 2.91424
1.71215 0.677122 2.91351
1.7701 0.671092 2.95793
1.73413 0.670276 2.97826
1.77985 0.606183 2.93059
1.75568 0.617885 2.96856
1.76445 0.652018 2.90283
1.80506 0.677516 2.97674
1.80302 0.608261 2.94491
1.89769 0.615643 2.90721
1.86776 0.658032 2.92208
1.87295 0.638071 2.99821
1.81599 0.673305 2.90489
1.93024 0.625821 2.96593
1.99173 0.680793 2.91941
1.94454 0.641162 2.93605
1.96606 0.670558 2.90346
1.96822 0.697424 2.90282
1.95246 0.668051 2.99654
2.01102 0.695268 2.90953
2.05183 0.694011 2.96132
2.04081 0.671823 2.97921
2.08584 0.634476 2.94605
2.07469 0.605362 2.94771
2.06854 0.692508 2.97467
2.11537 0.670062 2.93538
2.19835 0.684341 2.92296
2.15901 0.680026 2.91758
2.10793 0.672577 2.93445
2.13326 0.62766 2.93373
2.17819 0.682789 2.98154
2.26757 0.689052 2.96973
2.28404 0.640009 2.97654
2.23667 0.655773 2.94046
2.27573 0.695559 2.9352
2.23464 0.6227 2.94749
2.22008 0.663688 2.90426
2.36212 0.640397 2.94414
2.34032 0.653472 2.9589
2.30869 0.613786 2.90806
2.35761 0.608025 2.90553
2.32405 0.637581 2.91753
2.39652 0.640309 2.96527
2.41996 0.698856 2.95114
2.43915 0.660935 2.91346
2.43639 0.68967 2.96874
2.42368 0.691941 2.92397
2.46464 0.634658 2.94061
2.42994 0.659436 2.97392
2.50327 0.664066 2.9106
2.54777 0.673627 2.97571
2.53558 0.641647 2.94892
2.57257 0.660046 2.91854
2.51406 0.605726 2.94427
2.53962 0.673692 2.92458
2.60235 0.633904 2.93075
2.62242 0.601054 2.9621
2.68914 0.694882 2.97004
2.68042 0.643402 2.92359
2.64141 0.688771 2.96802
2.65348 0.695184 2.92955
2.74617 0.675879 2.98748
2.76988 0.676224 2.9057
2.7648 0.681954 2.97345
2.75457 0.634832 2.9261
2.77934 0.676081 2.92802
2.70178 0.655667 2.96041
2.82621 0.681288 2.96201
2.86706 0.68957 2.93972
2.80451 0.629258 2.93635
2.87075 0.610526 2.97665
2.88012 0.606286 2.96382
2.85465 0.667999 2.97371
2.90839 0.661935 2.92224
2.91304 0.66014 2.90128
2.96446 0.60376 2.91088
2.96071 0.664585 2.93755
2.94812 0.632324 2.98139
2.9847 0.673937 2.93627
3.03957 0.66602 2.92359
3.08865 0.64257 2.93076
3.05722 0.653634 2.93546
3.08482 0.654641 2.92718
3.05218 0.691172 2.90447
3.07968 0.662952 2.95305
0.487054 0.725782 2.90202
0.44227 0.784369 2.99437
0.427778 0.78804 2.92261
0.486515 0.794841 2.99304
0.454945 0.745747 2.91852
0.446761 0.72258 2.99822
0.576183 0.796775 2.95948
0.503862 0.714404 2.99007
0.521253 0.741972 2.95515
0.531798 0.793952 2.93307
0.536667 0.798328 2.96663
0.577576 0.784025 2.93415
0.635481 0.786935 2.96225
0.630163 0.723767 2.98213
0.677949 0.744729 2.97232
0.67438 0.775036 2.9928
0.672754 0.781519 2.97782
0.620247 0.735414 2.95985
0.736851 0.784732 2.91314
0.763182 0.7278 2.91713
0.744094 0.778254 2.90657
0.731511 0.77007 2.97348
0.739251 0.734103 2.94709
0.705679 0.770718 2.98082
0.812036 0.7806 2.92171
0.836322 0.709721 2.90225
0.882876 0.732431 2.9164
0.863553 0.778523 2.92742
0.821611 0.725552 2.94851
0.8632 0.752818 2.96727
0.959465 0.7448 2.95183
0.962222 0.747796 2.95295
0.908769 0.701768 2.90784
0.922584 0.76757 2.91879
0.972021 0.728372 2.94575
0.978074 0.771953 2.99754
1.01792 0.70337 2.91193
1.06031 0.783344 2.93254
1.08351 0.769412 2.98188
1.06163 0.781569 2.96736
1.03033 0.741706 2.90806
1.08575 0.75977 2.9018
1.17651 0.775515 2.95611
1.17563 0.738975 2.93784
1.1431 0.705407 2.93294
1.15297 0.741933 2.94455
1.133 0.722298 2.99505
1.16448 0.740463 2.96857
1.26263 0.751238 2.90826
1.29709 0.754285 2.96058
1.22776 0.725712 2.97142
1.2817 0.786224 2.91425
1.23696 0.789284 2.95575
1.27783 0.709825 2.96619
1.37227 0.777972 2.93055
1.31444 0.776146 2.99878
1.38825 0.743931 2.91654
1.35419 0.735941 2.92722
1.30689 0.759408 2.93065
1.34503 0.763585 2.94032
1.43812 0.703307 2.95699
1.40453 0.72678 2.98145
1.48629 0.791668 2.95167
1.40467 0.761483 2.96921
1.45201 0.73119 2.90283
1.44354 0.757672 2.91522
1.56163 0.779853 2.94559
1.5983 0.798891 2.94578
1.57176 0.748975 2.95617
1.50983 0.790986 2.93273
1.56707 0.758173 2.95488
1.51804 0.767421 2.90591
1.66019 0.757002 2.98925
1.60786 0.745553 2.91971
1.66528 0.791238 2.97931
1.69546 0.729646 2.92341
1.67023 0.768063 2.94238
1.67485 0.70582 2.93432
1.79637 0.79284 2.96728
1.7304 0.71133 2.904
1.72702 0.759137 2.90231
1.78556 0.754433 2.96788
1.74604 0.786158 2.94015
1.70981 0.706444 2.94704
1.83666 0.723731 2.98958
1.86087 0.706449 2.99044
1.8963 0.79567 2.99271
1.80806 0.724302 2.96673
1.88014 0.711953 2.9448
1.8476 0.755695 2.97096
1.99647 0.737283 2.91813
1.96749 0.788799 2.96411
1.9035 0.704188 2.94541
1.98671 0.79237 2.94226
1.97783 0.757378 2.91914
1.99082 0.746274 2.9309
2.00629 0.767624 2.94054
2.00286 0.765924 2.95435
2.08448 0.741926 2.98997
2.07978 0.718774 2.91717
2.08259 0.76055 2.91961
2.02473 0.781329 2.92264
2.11887 0.7405 2.99046
2.10387 0.756289 2.9954
2.11744 0.765494 2.92289
2.10331 0.704628 2.99329
2.16281 0.742525 2.91103
2.11255 0.738554 2.92172
2.21083 0.705328 2.98938
2.23777 0.721667 2.9816
2.25963 0.751502 2.99354
2.26062 0.732436 2.9481
2.2728 0.776818 2.97193
2.23781 0.780792 2.92741
2.34309 0.72171 2.95296
2.32912 0.710359 2.91454
2.36798 0.781339 2.94225
2.36947 0.715571 2.91994
2.35665 0.766521 2.97164
2.39353 0.746588 2.97641
2.41338 0.7345 2.90195
2.46818 0.755251 2.97675
2.49776 0.731065 2.93042
2.42752 0.737362 2.97363
2.41924 0.771964 2.92976
2.42135 0.718656 2.93646
2.55273 0.716819 2.9712
2.5575 0.759765 2.92381
2.52128 0.763053 2.94099
2.58782 0.785457 2.9743
2.54667 0.78128 2.93685
2.50281 0.792284 2.93211
2.61999 0.75565 2.93668
2.66223 0.781125 2.96594
2.69174 0.72032 2.92537
2.64011 0.77379 2.96572
2.60933 0.701585 2.92333
2.68532 0.772916 2.94456
2.70471 0.775624 2.97256
2.75627 0.741689 2.94612
2.71457 0.744169 2.91115
2.78805 0.733815 2.93576
2.74511 0.795814 2.9756
2.79361 0.763226 2.92355
2.84569 0.793624 2.90801
2.88935 0.780731 2.95311
2.83056 0.746026 2.97244
2.85906 0.722629 2.92631
2.87486 0.75301 2.91171
2.87172 0.713382 2.91126
2.95792 0.715488 2.90296
2.96382 0.717065 2.94375
2.9565 0.720958 2.91151
2.90165 0.721591 2.9916
2.90375 0.763531 2.98618
2.96056 0.793637 2.94849
3.0712 0.758066 2.941
3.02848 0.739803 2.93403
3.08394 0.710186 2.91921
3.0238 0.718719 2.93187
3.09847 0.73606 2.92811
3.03456 0.703801 2.90534
0.460635 0.848636 2.97397
0.459632 0.897412 2.91088
0.429482 0.872538 2.99512
0.439923 0.887188 2.97388
0.423702 0.890664 2.9744
0.457632 0.896985 2.90169
0.574189 0.839443 2.95892
0.56373 0.866403 2.96405
0.569546 0.880445 2.96546
0.569424 0.890996 2.93604
0.57883 0.888704 2.95372
0.596177 0.832923 2.9693
0.616525 0.870156 2.97248
0.638819 0.819662 2.93202
0.632539 0.874748 2.99165
0.622223 0.86914 2.96645
0.676137 0.86404 2.94026
0.673163 0.857161 2.96062
0.711457 0.848577 2.96853
0.755863 0.864416 2.98944
0.794842 0.868888 2.95637
0.743431 0.819067 2.90615
0.747361 0.826174 2.96298
0.760867 0.893369 2.96603
0.828239 0.839832 2.96631
0.860358 0.851997 2.93906
0.816189 0.83241 2.92864
0.896042 0.864212 2.96464
0.892844 0.864865 2.92518
0.81156 0.82446 2.96914
0.986141 0.808832 2.97126
0.935667 0.838704 2.90142
0.910579 0.819386 2.99799
0.972275 0.827585 2.94362
0.983303 0.855261 2.94204
0.908379 0.841706 2.9596
1.09624 0.807476 2.96308
1.04077 0.887309 2.98306
1.07634 0.892478 2.96909
1.05652 0.853559 2.94008
1.063 0.862851 2.91864
1.02578 0.834992 2.99297
1.15511 0.837593 2.95141
1.1455 0.844255 2.98777
1.17231 0.885089 2.97777
1.19783 0.823195 2.94409
1.18345 0.893124 2.96015
1.16324 0.885958 2.91344
1.29344 0.855132 2.97681
1.24454 0.811309 2.90699
1.21651 0.862021 2.92729
1.2054 0.857743 2.94052
1.24272 0.832307 2.9953
1.25694 0.891342 2.97124
1.36775 0.833432 2.92446
1.35229 0.890678 2.93956
1.36116 0.881228 2.96287
1.3346 0.825468 2.98295
1.3615 0.832937 2.97816
1.37033 0.874485 2.90252
1.43941 0.855311 2.98722
1.46432 0.841406 2.92905
1.41977 0.818233 2.99551
1.47919 0.866707 2.99521
1.48123 0.826419 2.95319
1.47478 0.859861 2.93734
1.54004 0.847664 2.9848
1.55335 0.867744 2.90131
1.53568 0.852704 2.96755
1.59748 0.891263 2.94449
1.57327 0.835775 2.93177
1.54154 0.841037 2.92471
1.62132 0.819375 2.95131
1.6812 0.846002 2.98603
1.62594 0.861415 2.98898
1.63131 0.87958 2.9859
1.65555 0.814788 2.98263
1.63167 0.890309 2.98324
1.74331 0.828742 2.94258
1.77537 0.879451 2.96273
1.71911 0.802497 2.94482
1.77052 0.807278 2.99843
1.73765 0.89823 2.92076
1.73956 0.886341 2.94356
1.8951 0.806891 2.90832
1.82269 0.851017 2.92173
1.83874 0.86026 2.90361
1.84067 0.837889 2.96242
1.84798 0.847035 2.95157
1.88052 0.801889 2.97411
1.95252 0.888207 2.95824
1.93122 0.807335 2.92593
1.90972 0.870311 2.90702
1.90622 0.802683 2.96334
1.99391 0.869771 2.98529
1.94537 0.870146 2.91536
2.02398 0.813286 2.9817
2.03535 0.839289 2.91296
2.05721 0.8373 2.98353
2.03948 0.807546 2.94037
2.06318 0.839064 2.91516
2.09774 0.808663 2.98438
2.12647 0.860396 2.91061
2.14185 0.809143 2.9107
2.18062 0.815818 2.9172
2.16121 0.804319 2.95893
2.16653 0.881275 2.96892
2.11815 0.860127 2.92724
2.26191 0.836916 2.96271
2.2634 0.833076 2.99429
2.27425 0.844561 2.92372
2.21214 0.863027 2.97427
2.29565 0.867141 2.9518
2.2749 0.806503 2.92678
2.33177 0.819675 2.97685
2.36218 0.889237 2.98404
2.3108 0.817814 2.94367
2.33019 0.873618 2.9147
2.30233 0.855316 2.92648
2.38557 0.895674 2.91894
2.49256 0.805487 2.91627
2.47704 0.823833 2.91946
2.46528 0.884314 2.93172
2.43064 0.866816 2.97433
2.48442 0.805749 2.94518
2.49027 0.865564 2.96354
2.51633 0.803869 2.93663
2.53973 0.824388 2.94113
2.59462 0.826479 2.93271
2.56072 0.879063 2.94454
2.58652 0.863513 2.96546
2.56734 0.827528 2.92414
2.6719 0.857433 2.96706
2.64193 0.811567 2.90505
2.68016 0.896808 2.98743
2.60508 0.821393 2.9801
2.67604 0.810081 2.97249
2.69641 0.877398 2.97179
2.79217 0.865497 2.98981
2.7461 0.856803 2.91912
2.71461 0.812628 2.9582
2.74459 0.894432 2.90775
2.72634 0.819371 2.97328
2.77009 0.890531 2.95508
2.86597 0.894201 2.9443
2.89182 0.860519 2.97259
2.83665 0.853106 2.9976
2.8664 0.80792 2.99354
2.83059 0.804688 2.90407
2.821 0.871996 2.93464
2.9741 0.840892 2.90515
2.99712 0.812491 2.95829
2.97581 0.875654 2.90581
2.99468 0.855895 2.98817
2.99618 0.858148 2.96473
2.90863 0.880039 2.97213
3.0373 0.872205 2.92443
3.02341 0.838828 2.95914
3.05514 0.869533 2.91895
3.03979 0.869427 2.94222
3.01014 0.809012 2.98088
3.06626 0.815772 2.953
0.428089 0.482097 3.02965
0.473556 0.45126 3.08963
0.438272 0.464074 3.05404
0.431264 0.495916 3.07981
0.438028 0.443387 3.07212
0.403691 0.496701 3.02498
0.535959 0.494171 3.03319
0.502504 0.458086 3.03487
0.586308 0.478176 3.02439
0.526843 0.448275 3.01445
0.507746 0.459702 3.07714
0.589941 0.434297 3.09028
0.643765 0.437756 3.02387
0.623799 0.43914 3.0878
0.645104 0.491335 3.03071
0.6899 0.457147 3.07839
0.66376 0.454335 3.04621
0.692303 0.447581 3.05793
0.71892 0.465926 3.05503
0.745803 0.484876 3.06456
0.74716 0.413656 3.02048
0.786135 0.497089 3.08871
0.744963 0.460535 3.06254
0.781114 0.403215 3.00339
0.807989 0.482877 3.04099
0.883249 0.484751 3.05349
0.831695 0.417163 3.06558
0.823959 0.482225 3.03788
0.871913 0.434068 3.08466
0.840533 0.443151 3.05521
0.94614 0.47552 3.05217
0.967136 0.416397 3.03997
0.932095 0.424144 3.06084
0.982123 0.455964 3.09798
0.975711 0.49581 3.01111
0.908304 0.437448 3.01472
1.06619 0.489919 3.05368
1.01617 0.456486 3.01263
1.07138 0.465907 3.03789
1.02492 0.471115 3.03941
1.07729 0.402308 3.06224
1.09078 0.42114 3.08971
1.18517 0.456866 3.09084
1.1263 0.443598 3.00974
1.16511 0.405181 3.08559
1.17557 0.47305 3.03068
1.19856 0.436286 3.01999
1.13121 0.488366 3.09231
1.25387 0.472493 3.02828
1.22474 0.422126 3.00123
1.22809 0.494445 3.02799
1.2852 0.469099 3.08196
1.26833 0.469384 3.09103
1.28842 0.454427 3.07268
1.36788 0.437313 3.01111
1.33753 0.453 3.04111
1.39612 0.401107 3.04852
1.35658 0.493611 3.06922
1.36086 0.493276 3.01824
1.35105 0.461736 3.02683
1.43355 0.467759 3.02555
1.42437 0.454312 3.02865
1.46047 0.484934 3.04884
1.49432 0.49212 3.06862
1.41581 0.401805 3.00321
1.46873 0.464007 3.01817
1.56277 0.451293 3.05807
1.575 0.463621 3.02593
1.51462 0.419514 3.04334
1.5774 0.428724 3.09143
1.52411 0.477061 3.09552
1.59876 0.439091 3.06455
1.61376 0.419719 3.05149
1.69577 0.4014 3.00647
1.61299 0.441845 3.02738
1.63301 0.452899 3.05449
1.69256 0.407506 3.08515
1.66595 0.454193 3.05136
1.75975 0.426951 3.092
1.7434 0.473883 3.03061
1.78047 0.409024 3.09721
1.74499 0.433047 3.01427
1.73696 0.472513 3.0646
1.76553 0.432085 3.07077
1.83547 0.434066 3.04341
1.8903 0.458951 3.00334
1.85254 0.470301 3.08824
1.80254 0.472599 3.02671
1.89792 0.403386 3.07226
1.86782 0.404566 3.04053
1.96556 0.401976 3.09863
1.93685 0.40452 3.00301
1.98039 0.412823 3.09063
1.91101 0.455894 3.04106
1.95434 0.496637 3.08782
1.95698 0.485486 3.07375
2.03725 0.470195 3.07722
2.08447 0.491896 3.02297
2.02614 0.455835 3.05332
2.08009 0.480079 3.05293
2.04755 0.405264 3.00233
2.0201 0.440239 3.03325
2.14484 0.415622 3.09805
2.16235 0.482128 3.0418
2.15613 0.453416 3.08342
2.18259 0.497738 3.00677
2.14889 0.418588 3.07486
2.18513 0.425519 3.07401
2.20804 0.419209 3.07801
2.29726 0.441062 3.06357
2.23249 0.434329 3.08838
2.27228 0.496112 3.08948
2.20565 0.49524 3.0875
2.24119 0.430883 3.04792
2.32949 0.435577 3.06714
2.32872 0.477655 3.02608
2.34704 0.498751 3.02235
2.35782 0.458439 3.03136
2.30639 0.430775 3.09178
2.34246 0.421676 3.04419
2.49189 0.416238 3.0815
2.46137 0.416844 3.09629
2.48455 0.473775 3.0182
2.46569 0.47 3.06482
2.45121 0.452356 3.08618
2.47415 0.466071 3.03649
2.57039 0.467605 3.04731
2.59642 0.478159 3.06959
2.54601 0.436832 3.03968
2.55298 0.475931 3.06105
2.52238 0.4198 3.08501
2.58883 0.475609 3.02542
2.68414 0.493156 3.04816
2.66307 0.47352 3.02427
2.66942 0.48328 3.02015
2.62972 0.471801 3.00989
2.63742 0.446896 3.01658
2.62346 0.488351 3.02293
2.75291 0.448249 3.07245
2.73024 0.479325 3.01126
2.74704 0.495063 3.04047
2.70451 0.401783 3.07892
2.71827 0.482203 3.09214
2.76479 0.460708 3.05848
2.87799 0.482685 3.04415
2.81335 0.451793 3.07797
2.83955 0.418191 3.01623
2.84849 0.482522 3.07209
2.83639 0.456855 3.08816
2.83557 0.420727 3.01043
2.97648 0.457972 3.03095
2.96483 0.456751 3.04003
2.97654 0.453367 3.08721
2.99196 0.48849 3.074
2.9671 0.496846 3.00791
2.93376 0.404487 3.06816
