ply
format ascii 1.0
element vertex 1954
property float x
property float y
property float z
end_header
1.53083 0.898966 2.13754
1.58785 0.855356 2.15455
1.54033 0.839694 2.18677
1.59834 0.839335 2.187
1.53208 0.819115 2.15224
1.61963 0.863323 2.10772
1.66344 0.815705 2.19582
1.66698 0.815964 2.13493
1.69564 0.858506 2.14501
1.62382 0.817079 2.17851
1.63967 0.842147 2.19501
1.73746 0.876674 2.12835
1.73529 0.837855 2.18186
1.78158 0.821527 2.18336
1.72576 0.839494 2.17568
1.72481 0.862719 2.1457
1.78624 0.822128 2.1371
1.84015 0.832063 2.1236
1.85307 0.858325 2.15108
1.88066 0.818203 2.17116
1.88399 0.845667 2.16617
1.85918 0.84819 2.17332
1.85772 0.806101 2.1196
1.96996 0.866231 2.12955
1.91871 0.870715 2.11613
1.91553 0.845354 2.19034
1.93824 0.839708 2.17232
1.97966 0.880189 2.17305
1.91619 0.810089 2.14692
2.01846 0.805276 2.11135
2.06823 0.879446 2.11728
2.07603 0.806261 2.17108
2.07965 0.815104 2.10846
2.0473 0.870011 2.14855
2.09061 0.874028 2.15978
2.12354 0.803355 2.14694
2.19784 0.828034 2.11213
2.11355 0.847119 2.10943
2.10995 0.872166 2.10361
2.18958 0.844565 2.17687
2.15411 0.876062 2.19563
2.25765 0.845597 2.10664
2.23437 0.812253 2.14769
2.21824 0.805081 2.10267
2.29706 0.851973 2.14733
2.29097 0.814974 2.10457
2.28802 0.863255 2.18238
2.3125 0.860585 2.18825
2.34382 0.847353 2.14004
2.32619 0.824886 2.1886
2.31556 0.86639 2.17452
2.34358 0.885045 2.12852
2.38648 0.839372 2.18718
2.41695 0.85256 2.15936
2.429 0.848693 2.17221
2.46912 0.812871 2.10281
2.40387 0.823723 2.10442
2.48379 0.877157 2.16577
2.42635 0.828237 2.11946
2.56868 0.813689 2.1244
2.50123 0.867724 2.15652
2.52188 0.86803 2.17658
2.56311 0.811582 2.17327
2.50706 0.802063 2.16229
2.55129 0.877723 2.12492
2.64042 0.888096 2.17531
2.63588 0.820344 2.17203
2.63679 0.804506 2.11197
2.60119 0.818185 2.17403
2.6082 0.837194 2.12942
2.65908 0.889858 2.18752
2.7617 0.848 2.12396
2.73238 0.895946 2.1047
2.7134 0.883049 2.19795
2.75913 0.809037 2.15235
2.76729 0.877228 2.15693
2.72638 0.834175 2.10619
2.84561 0.882844 2.18275
2.85652 0.85905 2.14242
2.82531 0.898563 2.18591
2.89724 0.882194 2.19572
2.86501 0.851748 2.17545
2.89481 0.846763 2.13722
2.9337 0.804924 2.11432
2.95807 0.860573 2.14491
2.90185 0.872886 2.1344
2.91548 0.857489 2.1561
2.90312 0.829566 2.14457
2.99542 0.898711 2.17924
3.02217 0.87329 2.1678
3.0415 0.85761 2.1882
3.07323 0.838072 2.1936
3.01377 0.844729 2.14805
3.0339 0.896901 2.19375
3.05556 0.832076 2.17564
0.435408 0.901471 2.10318
0.468038 0.957356 2.13508
0.401113 0.991714 2.14781
0.403588 0.939578 2.13621
0.457451 0.926471 2.14312
0.497783 0.932953 2.11529
0.539271 0.939533 2.11602
0.572286 0.978343 2.13992
0.594405 0.932906 2.14589
0.520106 0.943906 2.13816
0.527116 0.920058 2.15823
0.568446 0.99139 2.16829
0.606358 0.983121 2.10944
0.694803 0.980477 2.17938
0.620165 0.945037 2.18058
0.672798 0.954257 2.18425
0.654353 0.940597 2.10379
0.601873 0.959384 2.18231
0.773566 0.915329 2.16285
0.771673 0.94454 2.12086
0.72544 0.91108 2.11406
0.765022 0.905538 2.16825
0.743828 0.926312 2.10598
0.710867 0.913023 2.11011
0.808883 0.920246 2.12199
0.858928 0.947294 2.17909
0.834871 0.924695 2.12147
0.833218 0.958627 2.12297
0.879138 0.910876 2.13528
0.882535 0.913934 2.13241
0.939747 0.984548 2.18887
0.995674 0.906988 2.19141
0.984751 0.902043 2.12296
0.94482 0.988001 2.15604
0.960115 0.93948 2.1051
0.992555 0.9855 2.14739
1.08021 0.920966 2.17809
1.03444 0.951197 2.10884
1.06213 0.915676 2.19607
1.0424 0.970426 2.10545
1.07982 0.911678 2.11209
1.01837 0.99162 2.1363
1.17408 0.973238 2.19208
1.18666 0.987445 2.16929
1.16919 0.947874 2.18444
1.18876 0.948926 2.14894
1.10887 0.912351 2.12792
1.1854 0.944015 2.14257
1.23202 0.938419 2.17101
1.23617 0.985471 2.13844
1.24221 0.906726 2.14218
1.27877 0.925109 2.12627
1.23372 0.962806 2.15722
1.20528 0.988417 2.11145
1.36555 0.978502 2.18895
1.33202 0.912224 2.14184
1.34542 0.943731 2.11416
1.39472 0.910866 2.14351
1.34687 0.92397 2.19549
1.33303 0.912095 2.11246
1.47503 0.958646 2.10623
1.43867 0.942168 2.17532
1.43103 0.951316 2.19856
1.41436 0.934751 2.13724
1.45539 0.955816 2.19603
1.4176 0.943828 2.1274
1.52465 0.983721 2.12428
1.50371 0.996645 2.11984
1.5425 0.910757 2.19147
1.51306 0.905849 2.17223
1.53271 0.959324 2.10304
1.589 0.930838 2.16221
1.61589 0.932335 2.13949
1.6716 0.991325 2.1775
1.64759 0.986988 2.17157
1.64113 0.971706 2.13928
1.62063 0.953303 2.14587
1.6511 0.951739 2.17399
1.71489 0.962578 2.1677
1.76776 0.901779 2.14336
1.76145 0.92089 2.17645
1.78515 0.954435 2.18804
1.78704 0.976306 2.15504
1.76912 0.915656 2.17433
1.86856 0.921942 2.11923
1.82263 0.980653 2.15702
1.84389 0.994852 2.19454
1.85793 0.995875 2.12332
1.85692 0.918254 2.1044
1.8897 0.923643 2.17364
1.96291 0.926978 2.1665
1.98926 0.957712 2.14823
1.97241 0.982007 2.13417
1.91771 0.940852 2.1184
1.96207 0.940187 2.11531
1.96055 0.94427 2.17278
2.08284 0.923217 2.15999
2.04125 0.992729 2.17072
2.01535 0.96077 2.19738
2.05545 0.973573 2.1631
2.08051 0.939178 2.16595
2.01441 0.934203 2.11715
2.16979 0.908293 2.11758
2.17202 0.99035 2.11458
2.16613 0.902764 2.14372
2.10179 0.929656 2.13234
2.15447 0.902884 2.10888
2.14399 0.905639 2.13568
2.21555 0.929595 2.15566
2.23958 0.968258 2.18727
2.25978 0.97055 2.16966
2.27346 0.930826 2.15264
2.22987 0.981652 2.19068
2.20369 0.93498 2.12197
2.36118 0.96611 2.13132
2.34523 0.915146 2.15848
2.3355 0.947474 2.19289
2.39893 0.988007 2.19284
2.34398 0.974948 2.19036
2.39323 0.919376 2.14727
2.48313 0.938615 2.1836
2.40177 0.941187 2.1061
2.48498 0.953254 2.15137
2.42174 0.906252 2.14657
2.46703 0.936947 2.15874
2.44423 0.924437 2.17641
2.52773 0.956044 2.11495
2.55324 0.922777 2.19235
2.53184 0.909355 2.14437
2.54544 0.962348 2.17307
2.53653 0.953191 2.11196
2.52549 0.918913 2.14723
2.68058 0.934192 2.18037
2.62173 0.922792 2.11135
2.64768 0.927584 2.19852
2.6559 0.96314 2.13638
2.67741 0.995182 2.10784
2.60795 0.931796 2.14143
2.73445 0.958868 2.12028
2.71226 0.984715 2.18525
2.72147 0.904374 2.15174
2.70922 0.975065 2.14784
2.72654 0.964151 2.15437
2.7929 0.905537 2.14142
2.89273 0.908008 2.13377
2.81058 0.910871 2.1824
2.81253 0.990086 2.1461
2.84285 0.906895 2.16011
2.84799 0.953035 2.153
2.8665 0.928591 2.10711
2.9327 0.912605 2.1813
2.93786 0.951638 2.16319
2.95687 0.975084 2.1695
2.9407 0.944807 2.14648
2.98844 0.994097 2.18721
2.97145 0.931344 2.1688
3.0453 0.9847 2.12554
3.08657 0.960908 2.1466
3.08487 0.983808 2.13005
3.05385 0.951383 2.16725
3.06374 0.941763 2.1934
3.04027 0.947502 2.19758
0.470646 1.04607 2.12296
0.477129 1.08656 2.12543
0.46922 1.04692 2.16801
0.44321 1.03824 2.18958
0.452956 1.03191 2.11602
0.47225 1.05361 2.15868
0.563061 1.01685 2.17004
0.542584 1.01142 2.19063
0.540418 1.048 2.10531
0.508988 1.02211 2.18979
0.571858 1.00491 2.13873
0.551242 1.04476 2.17774
0.647785 1.02193 2.1548
0.610388 1.02989 2.12468
0.682594 1.05447 2.10668
0.656777 1.0151 2.10684
0.657499 1.04633 2.11542
0.67116 1.08646 2.14413
0.797612 1.07577 2.1864
0.747633 1.00173 2.1204
0.744798 1.01844 2.14385
0.736943 1.00727 2.16785
0.770269 1.06799 2.1896
0.748956 1.09408 2.17491
0.870437 1.04465 2.12731
0.823862 1.08938 2.13473
0.831296 1.02141 2.11295
0.818678 1.02053 2.17714
0.86911 1.04667 2.17249
0.820191 1.08811 2.18306
0.955515 1.00447 2.1471
0.97636 1.08975 2.19864
0.990782 1.03106 2.1908
0.913297 1.07715 2.18539
0.965644 1.09653 2.19253
0.931858 1.08399 2.1012
1.03333 1.09399 2.12279
1.04544 1.01096 2.15726
1.0825 1.06084 2.12369
1.0553 1.0475 2.14425
1.02376 1.01791 2.14741
1.08731 1.07862 2.16507
1.19431 1.00893 2.16699
1.11555 1.08869 2.15312
1.16735 1.00467 2.10425
1.16416 1.0318 2.12645
1.1411 1.07722 2.10491
1.18132 1.0866 2.19455
1.24831 1.00485 2.13665
1.25865 1.04868 2.14591
1.24061 1.09563 2.18204
1.25187 1.08725 2.18893
1.21824 1.09411 2.192
1.28702 1.0704 2.18272
1.37393 1.06965 2.16773
1.30161 1.08496 2.10341
1.35623 1.04011 2.15446
1.35769 1.0454 2.1862
1.37434 1.04297 2.19132
1.3013 1.01768 2.13375
1.41831 1.00318 2.10711
1.44119 1.06251 2.17585
1.44819 1.07488 2.16511
1.47413 1.02916 2.11617
1.48416 1.07763 2.19413
1.4364 1.00989 2.11808
1.52807 1.06844 2.12443
1.51003 1.05759 2.10534
1.51327 1.01349 2.13051
1.59402 1.07172 2.15841
1.58927 1.05103 2.12906
1.52418 1.05843 2.19452
1.67586 1.01493 2.15145
1.68135 1.08411 2.10492
1.68586 1.02934 2.15122
1.68306 1.06971 2.19485
1.64445 1.03495 2.12485
1.68211 1.02577 2.12065
1.70135 1.02483 2.13624
1.71003 1.08936 2.11648
1.76884 1.05646 2.1439
1.72062 1.03884 2.16198
1.74433 1.07478 2.17999
1.76075 1.0894 2.19746
1.86333 1.03585 2.19152
1.87816 1.06831 2.10896
1.87259 1.08741 2.17747
1.82471 1.04455 2.19518
1.8566 1.0884 2.10293
1.82821 1.07984 2.16336
1.92464 1.00134 2.13452
1.92638 1.09421 2.14293
1.98334 1.05565 2.16112
1.96557 1.02205 2.12389
1.97425 1.0893 2.12401
1.92881 1.01121 2.13925
2.01347 1.03252 2.12465
2.05317 1.02235 2.16288
2.02194 1.0101 2.1654
2.08932 1.09282 2.10839
2.01531 1.0577 2.11551
2.09139 1.03668 2.1101
2.19483 1.01652 2.1447
2.18545 1.03417 2.14501
2.14641 1.08314 2.17878
2.19661 1.02336 2.19539
2.17438 1.08188 2.14524
2.10884 1.08974 2.1773
2.20733 1.08983 2.19507
2.2387 1.0183 2.18327
2.269 1.04374 2.11911
2.20157 1.09502 2.11852
2.25113 1.01965 2.16122
2.25843 1.03473 2.19886
2.36023 1.00354 2.16917
2.32168 1.01355 2.10711
2.36486 1.06444 2.12315
2.31387 1.02727 2.16018
2.34633 1.0528 2.18869
2.34384 1.06334 2.15105
2.41657 1.06011 2.11866
2.44377 1.02774 2.13994
2.4304 1.05863 2.1098
2.40961 1.03352 2.1265
2.45543 1.09193 2.10388
2.46871 1.02963 2.16533
2.58206 1.01932 2.14188
2.5189 1.03941 2.15311
2.57316 1.02768 2.19776
2.51928 1.06554 2.17724
2.57696 1.05818 2.13123
2.57132 1.00859 2.18604
2.69397 1.00329 2.16815
2.61678 1.04512 2.12326
2.67336 1.00347 2.16821
2.61944 1.08762 2.16036
2.63796 1.01587 2.19503
2.65761 1.09366 2.16612
2.72431 1.06726 2.15489
2.76872 1.00103 2.15846
2.72014 1.06885 2.17358
2.73023 1.08814 2.18246
2.74738 1.0083 2.12827
2.72335 1.02868 2.18042
2.82511 1.05454 2.15417
2.88148 1.08182 2.16643
2.81911 1.06699 2.10928
2.89334 1.09406 2.17895
2.81694 1.04513 2.17548
2.86835 1.04889 2.13541
2.93994 1.01782 2.15545
2.9918 1.00203 2.10374
2.92503 1.01477 2.16124
2.98751 1.08104 2.17046
2.94327 1.06135 2.12193
2.91402 1.08964 2.10684
3.06664 1.08443 2.17849
3.08656 1.02072 2.14858
3.08696 1.01364 2.15258
3.06633 1.00933 2.17764
3.00961 1.0718 2.17644
3.06921 1.09512 2.19106
0.47745 1.14326 2.11856
0.46531 1.18508 2.15927
0.437364 1.17496 2.18047
0.402171 1.15916 2.15662
0.493662 1.11532 2.11225
0.427255 1.11847 2.18832
0.509771 1.1353 2.18777
0.551022 1.17321 2.19747
0.558011 1.11238 2.18571
0.558623 1.11901 2.12102
0.527215 1.12411 2.18066
0.523268 1.14563 2.14461
0.651851 1.18468 2.11349
0.619017 1.11183 2.10717
0.641748 1.10453 2.10265
0.646703 1.16481 2.138
0.694187 1.15183 2.17948
0.689527 1.17708 2.13559
0.706195 1.1219 2.193
0.744662 1.10694 2.16113
0.709614 1.10759 2.1064
0.777768 1.16024 2.14843
0.787607 1.1542 2.11881
0.711712 1.19259 2.16933
0.822631 1.14211 2.1934
0.817665 1.13774 2.13563
0.833831 1.14513 2.10364
0.827353 1.19393 2.15922
0.877778 1.16726 2.16593
0.841497 1.10794 2.1703
0.922425 1.13398 2.15371
0.943944 1.10564 2.10316
0.975317 1.15352 2.1533
0.989663 1.10438 2.13357
0.951091 1.13276 2.10162
0.925831 1.10787 2.19323
1.06633 1.1074 2.11005
1.01091 1.16801 2.17205
1.08778 1.12504 2.18968
1.02769 1.18167 2.1688
1.04324 1.12238 2.11956
1.0478 1.14584 2.17836
1.14494 1.11708 2.16587
1.18424 1.12988 2.10739
1.15678 1.11966 2.13566
1.10857 1.13323 2.12467
1.10716 1.11647 2.19299
1.10109 1.16258 2.13409
1.25684 1.19813 2.12568
1.20188 1.18076 2.17039
1.27899 1.17492 2.14111
1.27785 1.19763 2.17102
1.20621 1.19186 2.15267
1.20616 1.16873 2.1985
1.34249 1.13651 2.10249
1.35921 1.193 2.17388
1.36816 1.11974 2.17751
1.39691 1.1122 2.11627
1.37858 1.16053 2.14616
1.33523 1.10286 2.13311
1.44045 1.13877 2.18277
1.4587 1.15544 2.13202
1.42378 1.10993 2.19692
1.41603 1.1676 2.1875
1.4165 1.14204 2.10459
1.49421 1.11482 2.16706
1.54257 1.12726 2.16429
1.57776 1.10133 2.1749
1.59322 1.17799 2.10208
1.5178 1.17874 2.17425
1.51513 1.195 2.16388
1.59629 1.10746 2.16679
1.69146 1.10868 2.14521
1.62274 1.19529 2.16885
1.64408 1.17607 2.19319
1.65964 1.19812 2.13765
1.65574 1.1875 2.14633
1.63341 1.17996 2.1396
1.76915 1.12144 2.12293
1.73816 1.17241 2.18073
1.72526 1.16621 2.12979
1.73267 1.19439 2.12029
1.72865 1.11558 2.1301
1.7792 1.11187 2.18695
1.86367 1.18912 2.12938
1.8333 1.18747 2.15542
1.88494 1.18699 2.11833
1.89315 1.17186 2.11608
1.82085 1.17942 2.12821
1.88952 1.17632 2.15184
1.97956 1.17566 2.12184
1.94431 1.11386 2.10843
1.97449 1.1578 2.10767
1.90723 1.16312 2.16053
1.90356 1.17146 2.13718
1.95184 1.1847 2.16738
2.02872 1.17598 2.14572
2.01744 1.13656 2.11756
2.01633 1.19152 2.18572
2.05836 1.11058 2.18729
2.06578 1.19604 2.14864
2.05863 1.19109 2.13902
2.18806 1.17752 2.171
2.17807 1.11182 2.19528
2.11797 1.13007 2.19457
2.13773 1.10328 2.12179
2.11862 1.11775 2.18129
2.13442 1.17874 2.12791
2.21057 1.12597 2.10698
2.29825 1.1262 2.18755
2.24233 1.19678 2.115
2.2308 1.13251 2.13658
2.2129 1.14237 2.10686
2.21451 1.1938 2.15636
2.32009 1.1789 2.16347
2.35884 1.18166 2.12452
2.37033 1.13833 2.10633
2.39123 1.18948 2.1312
2.39589 1.12144 2.1664
2.32493 1.11023 2.13464
2.49515 1.1453 2.14591
2.47456 1.12267 2.13171
2.41915 1.15372 2.13631
2.43382 1.16858 2.11318
2.44289 1.14784 2.15839
2.42288 1.16992 2.18191
2.53509 1.19659 2.13434
2.50649 1.16689 2.18393
2.52624 1.10961 2.1877
2.55247 1.13479 2.18883
2.52424 1.17611 2.13625
2.51797 1.1035 2.1375
2.64135 1.19852 2.10717
2.67006 1.11445 2.19437
2.68274 1.12527 2.19141
2.61338 1.14506 2.18154
2.64397 1.17361 2.16089
2.64793 1.10263 2.14782
2.73254 1.14569 2.17754
2.71977 1.10395 2.12803
2.75789 1.11751 2.15692
2.7745 1.18197 2.19459
2.77592 1.1936 2.17958
2.77252 1.17061 2.13713
2.88393 1.10391 2.15814
2.89728 1.14392 2.11844
2.85786 1.10101 2.18696
2.84379 1.15498 2.15302
2.85108 1.11821 2.18278
2.85257 1.17381 2.17444
2.96512 1.19576 2.19187
2.99577 1.16385 2.14314
2.95306 1.11133 2.16676
2.9126 1.18226 2.12817
2.96631 1.1837 2.1737
2.91009 1.19721 2.10339
3.05273 1.14603 2.18677
3.09153 1.12115 2.16775
3.07865 1.14163 2.18038
3.0089 1.19333 2.17897
3.06454 1.18897 2.13276
3.06331 1.1626 2.1163
0.404671 1.22767 2.15463
0.420626 1.25948 2.19638
0.48515 1.22426 2.17882
0.460674 1.2275 2.16368
0.490111 1.23208 2.13456
0.453719 1.26458 2.19084
0.552596 1.24842 2.16573
0.546397 1.22793 2.17306
0.505103 1.2427 2.17985
0.535464 1.23437 2.11299
0.573675 1.26464 2.12444
0.524148 1.20168 2.16294
0.604951 1.22222 2.16766
0.617695 1.22669 2.15416
0.678921 1.24765 2.1298
0.644352 1.27563 2.16291
0.669234 1.2718 2.12099
0.678253 1.28478 2.11583
0.746102 1.23418 2.1708
0.778293 1.21532 2.17858
0.705577 1.24016 2.12705
0.779743 1.20686 2.13073
0.712487 1.27417 2.16574
0.78772 1.23612 2.13425
0.83127 1.27583 2.10695
0.885105 1.20537 2.14173
0.883699 1.27848 2.16876
0.861328 1.21469 2.162
0.831896 1.29508 2.19226
0.870063 1.2216 2.16742
0.94892 1.29472 2.16837
0.907708 1.21691 2.18717
0.93959 1.27397 2.10846
0.985233 1.27441 2.12738
0.924316 1.25544 2.13567
0.95165 1.22099 2.15239
1.06505 1.28526 2.15834
1.01711 1.2447 2.10887
1.0445 1.20416 2.16809
1.05335 1.22015 2.16583
1.00593 1.25621 2.19004
1.04675 1.23756 2.10367
1.10946 1.21043 2.17375
1.16107 1.2134 2.18331
1.17748 1.29409 2.11017
1.10847 1.27923 2.11648
1.11386 1.2977 2.13264
1.13595 1.26159 2.18611
1.20424 1.22331 2.16862
1.25206 1.28802 2.18636
1.21866 1.26006 2.15338
1.26291 1.28901 2.12722
1.24041 1.21879 2.14633
1.23382 1.22588 2.11712
1.37831 1.25651 2.11054
1.34527 1.20822 2.19739
1.34385 1.28328 2.13512
1.30725 1.29526 2.10166
1.38538 1.2123 2.1766
1.39382 1.24106 2.15204
1.44783 1.20159 2.17164
1.43455 1.29449 2.12275
1.48881 1.27482 2.18501
1.47708 1.20518 2.19051
1.4789 1.22044 2.12848
1.4409 1.22151 2.18155
1.59842 1.24147 2.15769
1.5768 1.24543 2.13265
1.52639 1.2473 2.18853
1.5265 1.26734 2.11529
1.51064 1.26984 2.11969
1.56401 1.25103 2.12577
1.68127 1.27595 2.11113
1.64093 1.27858 2.17977
1.6666 1.20792 2.18731
1.64674 1.22425 2.1816
1.68379 1.26953 2.1663
1.68806 1.29541 2.11848
1.72582 1.23112 2.18591
1.76698 1.25704 2.10457
1.79598 1.2348 2.15597
1.76993 1.2395 2.10878
1.75314 1.24454 2.1205
1.77084 1.24574 2.1686
1.81848 1.23393 2.16296
1.86048 1.24516 2.14806
1.82573 1.21503 2.16551
1.80602 1.20207 2.10123
1.82801 1.21225 2.14615
1.83262 1.21622 2.16571
1.90318 1.21101 2.11672
1.93648 1.24269 2.13168
1.96317 1.28467 2.13327
1.92809 1.25443 2.17899
1.9086 1.27604 2.1017
1.95649 1.23715 2.11797
2.01064 1.25455 2.15518
2.02904 1.20634 2.19267
2.02687 1.23393 2.15419
2.02878 1.21078 2.14591
2.0853 1.29259 2.14525
2.05349 1.23646 2.11746
2.18439 1.26348 2.18832
2.16219 1.27197 2.15641
2.16438 1.28586 2.13988
2.10352 1.26382 2.15925
2.13741 1.25396 2.10384
2.19147 1.21091 2.17162
2.27938 1.20122 2.15722
2.28722 1.21364 2.13201
2.24466 1.26711 2.16472
2.28188 1.24654 2.1276
2.23921 1.24257 2.12895
2.2091 1.24288 2.17617
2.38726 1.26751 2.13423
2.35485 1.216 2.10905
2.33019 1.27446 2.11503
2.3295 1.22271 2.10732
2.37053 1.22034 2.14553
2.36191 1.2022 2.19515
2.47414 1.22142 2.15697
2.4639 1.29748 2.18586
2.43138 1.23783 2.10319
2.4947 1.29582 2.16914
2.48111 1.2982 2.1332
2.43196 1.27372 2.13553
2.54073 1.28775 2.10467
2.52258 1.25712 2.15881
2.51527 1.29542 2.13545
2.50544 1.22102 2.11762
2.59364 1.29081 2.1569
2.56634 1.20601 2.18941
2.62642 1.24379 2.12136
2.61077 1.27335 2.1974
2.61765 1.25462 2.16287
2.66779 1.25679 2.16038
2.60241 1.22852 2.11593
2.63422 1.26682 2.14296
2.72937 1.29616 2.12434
2.78944 1.27475 2.18686
2.78919 1.2766 2.12409
2.7168 1.20969 2.15506
2.70793 1.23504 2.11839
2.72639 1.21375 2.17425
2.83063 1.25764 2.18111
2.82934 1.2809 2.18005
2.8436 1.21705 2.11199
2.83396 1.26113 2.14146
2.83699 1.26143 2.11501
2.80937 1.29653 2.18
2.96897 1.22504 2.13503
2.94433 1.2628 2.11875
2.94368 1.29687 2.10656
2.92779 1.28494 2.18655
2.92008 1.20932 2.18048
2.94722 1.29111 2.12743
3.07401 1.25869 2.11766
3.00162 1.2985 2.17275
3.07193 1.22113 2.18509
3.09607 1.20867 2.18546
3.06029 1.20724 2.15341
3.07891 1.2032 2.17747
0.444757 1.32666 2.14045
0.468443 1.3454 2.12745
0.424635 1.39374 2.15861
0.421181 1.33676 2.17581
0.462119 1.30603 2.109
0.411898 1.35109 2.1653
0.590376 1.32125 2.14178
0.53976 1.30122 2.16657
0.594789 1.3768 2.12756
0.598796 1.3789 2.15344
0.582074 1.39214 2.17545
0.586352 1.37429 2.1532
0.619423 1.32828 2.156
0.695117 1.3306 2.13261
0.63198 1.34787 2.12326
0.646181 1.32789 2.17723
0.608032 1.34349 2.15527
0.607739 1.37705 2.11199
0.772885 1.37072 2.17973
0.775673 1.36491 2.11957
0.733754 1.31093 2.13639
0.714124 1.30435 2.11849
0.759691 1.33747 2.12214
0.741068 1.39807 2.13082
0.802555 1.33099 2.16799
0.823035 1.39291 2.17339
0.845847 1.32725 2.1112
0.866385 1.31591 2.18598
0.808531 1.33019 2.15377
0.857416 1.3046 2.10468
0.968915 1.36662 2.13832
0.944607 1.3486 2.12948
0.905963 1.34374 2.1546
0.938323 1.31457 2.17153
0.958559 1.38741 2.13477
0.971862 1.35155 2.11612
1.04215 1.36678 2.10763
1.02667 1.37265 2.14702
1.02387 1.38043 2.16167
1.09621 1.33693 2.11869
1.08711 1.33387 2.16886
1.04366 1.38775 2.19376
1.19887 1.39063 2.1076
1.13371 1.37927 2.13478
1.17045 1.35808 2.19373
1.13409 1.34886 2.19335
1.13417 1.38749 2.11057
1.19447 1.3931 2.13951
1.25417 1.33497 2.17179
1.25174 1.3617 2.10795
1.27123 1.38479 2.10485
1.2314 1.37902 2.1662
1.2565 1.31701 2.12925
1.23386 1.35629 2.13086
1.34055 1.33735 2.15817
1.36854 1.34889 2.172
1.34061 1.38908 2.11777
1.3277 1.34522 2.16173
1.31437 1.37687 2.10613
1.34474 1.327 2.16956
1.48532 1.33548 2.11821
1.43563 1.3161 2.11736
1.4958 1.30977 2.11261
1.47004 1.38504 2.16317
1.41277 1.34098 2.17289
1.45399 1.38367 2.1894
1.54236 1.37786 2.11936
1.52746 1.3858 2.16206
1.52089 1.31744 2.10508
1.50266 1.39373 2.18861
1.52198 1.33712 2.13391
1.59346 1.3447 2.17785
1.66272 1.36944 2.13088
1.67274 1.35934 2.1368
1.602 1.30723 2.15861
1.66407 1.39456 2.17048
1.61283 1.36764 2.11503
1.66773 1.30489 2.11161
1.79606 1.31813 2.11519
1.70702 1.33416 2.11238
1.739 1.30999 2.19402
1.77311 1.32362 2.18527
1.7167 1.33934 2.11891
1.70812 1.3735 2.17251
1.81848 1.34075 2.18988
1.88649 1.37526 2.13257
1.85715 1.35137 2.19056
1.86277 1.39373 2.1135
1.86202 1.3844 2.11545
1.89269 1.37384 2.13877
1.93831 1.38758 2.18485
1.95229 1.37321 2.11515
1.98302 1.36057 2.15139
1.9552 1.30642 2.16407
1.99402 1.32164 2.18628
1.92396 1.31199 2.17274
2.04863 1.37247 2.16215
2.0279 1.37604 2.19887
2.02193 1.32674 2.13462
2.07455 1.35505 2.18469
2.06214 1.33292 2.11967
2.03486 1.39474 2.18879
2.17107 1.34406 2.19895
2.10311 1.31233 2.18824
2.1664 1.32504 2.15471
2.1387 1.31311 2.10248
2.1695 1.38208 2.19624
2.10764 1.34029 2.1398
2.22799 1.36228 2.19553
2.2711 1.34494 2.16116
2.25989 1.3816 2.18194
2.28044 1.37459 2.10717
2.27396 1.37282 2.16608
2.2456 1.38555 2.14811
2.34442 1.3201 2.16927
2.30791 1.38047 2.10729
2.30608 1.33203 2.11615
2.30918 1.32383 2.18841
2.37583 1.34656 2.13792
2.37756 1.39616 2.15776
2.48443 1.33593 2.1446
2.43707 1.38089 2.18574
2.47565 1.31032 2.19413
2.46367 1.32531 2.11514
2.46511 1.30456 2.15822
2.44372 1.3612 2.16276
2.53295 1.36925 2.12254
2.51033 1.32032 2.12246
2.56499 1.37496 2.10821
2.52181 1.38397 2.19624
2.55489 1.34625 2.15723
2.59215 1.34321 2.16036
2.60905 1.32194 2.11134
2.68412 1.34337 2.15871
2.6978 1.35131 2.10368
2.62242 1.34205 2.1728
2.6189 1.32744 2.1758
2.66446 1.33943 2.11568
2.76507 1.34723 2.17864
2.75417 1.33189 2.10583
2.73475 1.34505 2.13167
2.78923 1.37108 2.12409
2.75822 1.32274 2.17656
2.71948 1.31117 2.10792
2.84439 1.3434 2.16159
2.8372 1.31568 2.18046
2.85722 1.39395 2.15343
2.83591 1.36048 2.1058
2.87945 1.30524 2.14242
2.84707 1.37219 2.15977
2.95575 1.3618 2.17494
2.95638 1.30101 2.19204
2.92609 1.37756 2.10762
2.91553 1.31988 2.18722
2.98937 1.34633 2.12178
2.99073 1.33175 2.14711
3.09416 1.3581 2.13309
3.03961 1.37456 2.19006
3.00341 1.35148 2.19598
3.0658 1.30227 2.12603
3.07264 1.32455 2.1793
3.03656 1.36061 2.17368
0.435935 0.489874 2.28216
0.421511 0.46119 2.24746
0.428187 0.433704 2.28788
0.433059 0.464205 2.21282
0.421808 0.464033 2.27451
0.46465 0.469921 2.22781
0.502563 0.408589 2.26696
0.578159 0.478814 2.20178
0.593415 0.423514 2.23998
0.562049 0.460033 2.24749
0.564923 0.418703 2.28485
0.557526 0.417658 2.25136
0.668095 0.492248 2.23144
0.687816 0.497133 2.27925
0.695315 0.491152 2.28561
0.685604 0.476045 2.24466
0.63156 0.462676 2.23749
0.686924 0.495102 2.25406
0.764033 0.427316 2.26589
0.77667 0.491967 2.20512
0.779909 0.452807 2.28872
0.7722 0.417206 2.22168
0.731569 0.423346 2.26081
0.783453 0.485552 2.22808
0.882611 0.417346 2.22401
0.815559 0.489496 2.21623
0.889773 0.463062 2.27436
0.854958 0.461785 2.28123
0.8379 0.462913 2.21762
0.803887 0.433203 2.26712
0.951676 0.409879 2.28491
0.958704 0.405762 2.21533
0.983165 0.410947 2.24164
0.967531 0.424336 2.29846
0.945028 0.434754 2.23216
0.90209 0.454334 2.28661
1.06177 0.440034 2.25387
1.0882 0.47774 2.22449
1.06124 0.412103 2.24135
1.02558 0.444537 2.28101
1.02213 0.477533 2.27442
1.03525 0.480109 2.25451
1.11644 0.419241 2.23932
1.19217 0.473084 2.25773
1.17006 0.429276 2.24074
1.10927 0.415511 2.21009
1.13668 0.408071 2.29466
1.14687 0.471281 2.22889
1.24837 0.445861 2.21634
1.27673 0.438789 2.23665
1.27319 0.464253 2.29837
1.28341 0.457112 2.2768
1.25827 0.48677 2.20572
1.20822 0.485652 2.21994
1.37057 0.430551 2.27644
1.36813 0.411287 2.24773
1.31354 0.458871 2.22768
1.38191 0.45725 2.29184
1.31338 0.480519 2.29225
1.39005 0.403582 2.29174
1.42857 0.4661 2.23669
1.48727 0.481643 2.2366
1.49794 0.455847 2.26689
1.45496 0.444363 2.23466
1.48991 0.474242 2.21432
1.4571 0.471361 2.21011
1.52245 0.470483 2.2479
1.56997 0.455682 2.26371
1.54016 0.46196 2.20204
1.58945 0.448103 2.26118
1.51325 0.489363 2.24031
1.56402 0.412945 2.22196
1.6257 0.430349 2.29574
1.6687 0.455225 2.22917
1.63924 0.447843 2.27192
1.65895 0.497647 2.2807
1.68008 0.46189 2.2273
1.68323 0.459529 2.27255
1.71957 0.426407 2.25137
1.75505 0.418728 2.25996
1.77974 0.455049 2.20565
1.75955 0.494895 2.23335
1.73375 0.401474 2.28822
1.71444 0.445132 2.24126
1.88589 0.422443 2.23262
1.89411 0.426305 2.20386
1.86119 0.463519 2.27706
1.81697 0.464319 2.25314
1.88082 0.475917 2.23852
1.84743 0.411854 2.20456
1.95505 0.453793 2.24239
1.97645 0.428162 2.24639
1.97707 0.495072 2.24155
1.93434 0.408836 2.24288
1.9343 0.472978 2.27649
1.9663 0.488654 2.23984
2.07057 0.438992 2.21643
2.02995 0.419164 2.23612
2.01252 0.496638 2.23439
2.04749 0.428527 2.27865
2.09892 0.476782 2.28616
2.03362 0.473764 2.2924
2.14594 0.489875 2.2226
2.11923 0.433057 2.28201
2.19082 0.466054 2.25671
2.17945 0.492425 2.2147
2.11852 0.48974 2.21807
2.10934 0.401105 2.22579
2.21528 0.459062 2.23064
2.23173 0.448229 2.28262
2.2829 0.495291 2.24061
2.26448 0.456963 2.22605
2.29264 0.45637 2.22509
2.2974 0.466284 2.29353
2.39168 0.487962 2.23012
2.37328 0.440431 2.27725
2.31055 0.461475 2.21637
2.31886 0.416432 2.27904
2.36527 0.480738 2.23433
2.34036 0.420094 2.22672
2.49884 0.413567 2.23771
2.45505 0.426261 2.2405
2.48041 0.466407 2.28692
2.48243 0.40189 2.22104
2.47691 0.42257 2.24103
2.46016 0.472665 2.25587
2.55132 0.422412 2.28748
2.54133 0.470261 2.28188
2.57584 0.433058 2.28346
2.57561 0.480591 2.27452
2.56662 0.417638 2.22835
2.55794 0.462422 2.2947
2.60471 0.453027 2.25711
2.69886 0.476725 2.2413
2.64487 0.466662 2.27054
2.67573 0.451725 2.26559
2.66709 0.415266 2.23187
2.6763 0.439877 2.29337
2.70823 0.459862 2.2806
2.77489 0.436628 2.27409
2.73915 0.469481 2.25756
2.71318 0.42378 2.25785
2.7591 0.4649 2.26334
2.75811 0.466098 2.27298
2.81423 0.437379 2.21042
2.83388 0.445277 2.27344
2.83765 0.43476 2.2326
2.85458 0.401017 2.22185
2.80643 0.482697 2.27315
2.80824 0.480666 2.29466
2.98629 0.491805 2.20652
2.91345 0.465799 2.25867
2.9754 0.432288 2.28103
2.95712 0.413525 2.28797
2.97068 0.470833 2.27186
2.98805 0.426352 2.25226
3.00153 0.484117 2.27703
3.01708 0.474415 2.28699
3.02525 0.487704 2.2298
3.03407 0.486211 2.28703
3.01345 0.418014 2.27152
3.02634 0.411347 2.21254
0.419277 0.539315 2.27557
0.477359 0.587237 2.26181
0.462086 0.577069 2.25672
0.430271 0.52174 2.26351
0.481145 0.562322 2.25761
0.414238 0.570585 2.22651
0.502126 0.526118 2.25577
0.519582 0.518076 2.22769
0.521332 0.55759 2.22608
0.576828 0.592372 2.27294
0.506285 0.528022 2.28673
0.53178 0.516109 2.21949
0.601286 0.55114 2.23077
0.618586 0.563251 2.24155
0.678485 0.586162 2.2921
0.671076 0.537531 2.2621
0.638574 0.588253 2.2183
0.608967 0.542571 2.29648
0.726909 0.53109 2.21504
0.757085 0.518735 2.22367
0.776459 0.591646 2.23831
0.72383 0.548499 2.26556
0.7599 0.552807 2.20852
0.777225 0.528068 2.2016
0.846563 0.503116 2.2691
0.80819 0.572211 2.24191
0.841741 0.570818 2.20979
0.813388 0.503485 2.22143
0.835013 0.532556 2.23431
0.878475 0.585359 2.22584
0.991574 0.528277 2.20137
0.916447 0.590761 2.23603
0.906535 0.513459 2.26196
0.99714 0.548459 2.24313
0.962299 0.551451 2.22444
0.990365 0.557357 2.24558
1.0317 0.534174 2.27739
1.04368 0.552211 2.26756
1.09669 0.535619 2.29547
1.02983 0.595028 2.22041
1.09229 0.518351 2.23825
1.09387 0.567331 2.29582
1.11402 0.516203 2.29776
1.14175 0.56962 2.24348
1.10192 0.514843 2.2523
1.17922 0.528864 2.2988
1.1744 0.562004 2.2586
1.12614 0.561903 2.24826
1.24002 0.571324 2.25441
1.21047 0.508758 2.20772
1.28649 0.569614 2.27676
1.26849 0.516657 2.22247
1.20525 0.580856 2.26887
1.28288 0.522151 2.28779
1.34492 0.508366 2.27429
1.30602 0.547644 2.25993
1.3178 0.566813 2.29407
1.34772 0.502145 2.20238
1.39557 0.545764 2.22919
1.30361 0.563656 2.28844
1.49157 0.598228 2.28138
1.48913 0.596844 2.26084
1.48959 0.538457 2.24883
1.49841 0.524362 2.24303
1.41941 0.557506 2.28129
1.46093 0.538175 2.22694
1.57655 0.510818 2.23101
1.5069 0.557407 2.23607
1.53165 0.563565 2.27522
1.57396 0.558053 2.26603
1.52316 0.588749 2.20706
1.5969 0.553626 2.29831
1.69758 0.559585 2.24797
1.645 0.563377 2.23811
1.67429 0.54262 2.26983
1.61859 0.53316 2.21217
1.67207 0.529227 2.23422
1.61133 0.507224 2.25587
1.72979 0.553846 2.24891
1.74343 0.50205 2.22713
1.75212 0.518552 2.25943
1.71495 0.540435 2.26302
1.75278 0.519464 2.20528
1.76862 0.524273 2.2055
1.84171 0.595953 2.23563
1.82282 0.578705 2.26545
1.85345 0.571461 2.26013
1.85535 0.530864 2.28531
1.85151 0.585541 2.24042
1.80383 0.548611 2.2408
1.95936 0.536972 2.26199
1.96237 0.528648 2.23853
1.90579 0.551463 2.22454
1.98455 0.553168 2.2594
1.96481 0.596917 2.23841
1.92859 0.522571 2.25432
2.00405 0.57644 2.29545
2.02695 0.538527 2.27431
2.00507 0.541184 2.23771
2.07248 0.573157 2.27852
2.00304 0.526299 2.23668
2.05578 0.525689 2.2264
2.16758 0.54248 2.2739
2.13208 0.513668 2.28666
2.11844 0.503569 2.27726
2.11837 0.594502 2.29042
2.16772 0.534642 2.25148
2.17075 0.555691 2.20664
2.2437 0.569301 2.26208
2.21265 0.527137 2.23157
2.26312 0.572984 2.23419
2.2279 0.583644 2.27091
2.25132 0.502367 2.27789
2.28188 0.577228 2.22751
2.30305 0.565524 2.26652
2.39367 0.521016 2.29675
2.31017 0.515813 2.28795
2.36095 0.589594 2.2562
2.31971 0.503682 2.20987
2.34591 0.5701 2.26667
2.42481 0.57393 2.25182
2.47998 0.558111 2.27571
2.46502 0.518616 2.22191
2.44771 0.582241 2.20495
2.48502 0.518329 2.24373
2.49399 0.520303 2.20768
2.52403 0.547317 2.20156
2.56409 0.517889 2.23047
2.53518 0.565359 2.22969
2.5899 0.535158 2.20356
2.51977 0.51344 2.2093
2.56603 0.552268 2.20467
2.67013 0.596009 2.29131
2.60226 0.531665 2.27295
2.62979 0.560692 2.22242
2.61079 0.537061 2.28046
2.66584 0.522434 2.23333
2.68826 0.580284 2.28191
2.76854 0.572277 2.21072
2.74105 0.531565 2.23707
2.72549 0.508377 2.20811
2.72356 0.566282 2.21068
2.70358 0.546895 2.24835
2.76669 0.575494 2.2144
2.84542 0.517357 2.26433
2.81034 0.585829 2.21322
2.83185 0.579436 2.21375
2.80245 0.507822 2.23935
2.86976 0.573422 2.22127
2.84431 0.560479 2.25476
2.92884 0.551019 2.23091
2.97255 0.583928 2.20151
2.98918 0.570225 2.21693
2.93082 0.564906 2.27475
2.93368 0.573644 2.25601
2.97126 0.541502 2.21564
3.09762 0.519438 2.2212
3.01617 0.516184 2.25133
3.07786 0.568549 2.24597
3.06963 0.588963 2.24447
3.02879 0.537184 2.26588
3.03613 0.512528 2.26526
0.47816 0.668728 2.27292
0.422183 0.693471 2.2155
0.484851 0.698146 2.26087
0.464035 0.634333 2.23236
0.467025 0.659315 2.28625
0.429804 0.611903 2.27246
0.542736 0.684033 2.22015
0.546672 0.694438 2.20977
0.524822 0.696215 2.22898
0.58096 0.639664 2.28103
0.551723 0.681549 2.29386
0.514356 0.661396 2.25754
0.60243 0.634986 2.24686
0.622821 0.692048 2.2923
0.634586 0.685995 2.2778
0.669542 0.615524 2.23207
0.604238 0.618476 2.25272
0.694486 0.61087 2.20984
0.788699 0.639091 2.21493
0.713744 0.618711 2.21226
0.720082 0.624814 2.29672
0.74246 0.685254 2.20256
0.794517 0.615002 2.25907
0.794482 0.61462 2.21876
0.867088 0.622704 2.23748
0.897489 0.617767 2.22296
0.804084 0.663762 2.25407
0.870519 0.668518 2.29375
0.886664 0.645869 2.27516
0.866896 0.613801 2.28011
0.934338 0.673712 2.23973
0.985835 0.64656 2.27113
0.913627 0.6332 2.23724
0.904001 0.683753 2.28284
0.927833 0.65902 2.29157
0.922208 0.619244 2.24064
1.07893 0.647143 2.2152
1.0216 0.693155 2.21662
1.05519 0.63138 2.20899
1.00933 0.693497 2.28339
1.04782 0.646189 2.26437
1.09736 0.667013 2.20214
1.12984 0.667182 2.21736
1.14806 0.61425 2.28929
1.10982 0.6594 2.29008
1.18832 0.605417 2.28459
1.13877 0.690348 2.22593
1.17305 0.604979 2.25595
1.23598 0.68149 2.25449
1.20115 0.610916 2.25574
1.24329 0.62632 2.27487
1.26137 0.693894 2.27185
1.26636 0.663379 2.23333
1.23027 0.646511 2.23793
1.31227 0.605424 2.23885
1.30577 0.656985 2.27319
1.33954 0.679068 2.26584
1.34478 0.621793 2.23491
1.37369 0.670905 2.2688
1.3125 0.603555 2.29842
1.46667 0.636613 2.28132
1.46233 0.628604 2.29735
1.48536 0.68332 2.26853
1.40811 0.645098 2.27073
1.42991 0.643826 2.29075
1.42488 0.678848 2.2709
1.55419 0.613588 2.24041
1.53763 0.668041 2.20801
1.55257 0.601771 2.22732
1.5568 0.608854 2.28159
1.53289 0.614723 2.27105
1.54085 0.691644 2.20758
1.62984 0.675293 2.28271
1.63372 0.627171 2.29474
1.66552 0.683925 2.2835
1.63879 0.639557 2.26452
1.69148 0.67612 2.29359
1.68428 0.638545 2.24406
1.76655 0.634944 2.26903
1.79433 0.657914 2.29652
1.78171 0.691847 2.28151
1.76217 0.633159 2.283
1.71927 0.665779 2.28436
1.71588 0.618284 2.21963
1.82359 0.616453 2.29068
1.81752 0.653659 2.21304
1.87011 0.628502 2.24375
1.84795 0.611118 2.20285
1.89298 0.623986 2.21926
1.81723 0.616748 2.22491
1.9791 0.658321 2.27019
1.90135 0.623819 2.2858
1.93358 0.691688 2.21702
1.9802 0.658431 2.26779
1.98475 0.606907 2.28052
1.93846 0.669085 2.24172
2.03689 0.683803 2.275
2.06965 0.635689 2.23283
2.00961 0.684429 2.28566
2.01888 0.648906 2.2132
2.03566 0.670717 2.27485
2.05533 0.669958 2.20542
2.17817 0.679981 2.2927
2.12418 0.670093 2.28422
2.14603 0.620787 2.2663
2.11269 0.603858 2.28849
2.18645 0.652785 2.27357
2.10336 0.689879 2.2942
2.23916 0.659075 2.26004
2.25558 0.667038 2.26985
2.29664 0.678752 2.28477
2.20644 0.659464 2.29781
2.29308 0.644525 2.26059
2.23477 0.661256 2.28478
2.38842 0.678923 2.23618
2.31706 0.685552 2.24109
2.38758 0.615632 2.20603
2.38024 0.65885 2.27211
2.38878 0.62138 2.23135
2.35572 0.691019 2.28619
2.4478 0.665788 2.25566
2.40496 0.648267 2.23111
2.43407 0.627753 2.23093
2.41112 0.609988 2.21672
2.45732 0.616981 2.25748
2.46534 0.634519 2.26213
2.56893 0.690565 2.22924
2.56361 0.647491 2.21324
2.57137 0.628697 2.23739
2.56425 0.617536 2.26486
2.53769 0.642462 2.24252
2.58349 0.654449 2.22273
2.66309 0.658752 2.24729
2.683 0.603868 2.28094
2.66238 0.695339 2.25909
2.61606 0.643983 2.21705
2.68203 0.644278 2.21922
2.68069 0.668183 2.24199
2.77657 0.653691 2.21834
2.70872 0.651563 2.2175
2.70935 0.610861 2.21611
2.70327 0.638702 2.21107
2.76628 0.641178 2.20669
2.78393 0.694092 2.25567
2.88951 0.688466 2.22149
2.80412 0.679722 2.29673
2.83663 0.608854 2.2282
2.83198 0.642486 2.2591
2.84619 0.660814 2.2097
2.84496 0.612615 2.23644
2.95207 0.636073 2.20631
2.9104 0.616344 2.28121
2.99481 0.636975 2.23258
2.98218 0.663539 2.27071
2.97676 0.681132 2.29856
2.91037 0.639534 2.25316
3.09406 0.692587 2.25251
3.02644 0.654565 2.20811
3.09693 0.696971 2.25699
3.08851 0.678842 2.26658
3.044 0.628463 2.23919
3.05674 0.605495 2.29038
0.414368 0.78494 2.23616
0.401704 0.784228 2.20539
0.477134 0.7283 2.217
0.413874 0.774873 2.24007
0.413053 0.711615 2.22807
0.436555 0.74194 2.28419
0.574216 0.710335 2.24815
0.503132 0.797229 2.21185
0.57149 0.704268 2.26158
0.512784 0.759726 2.26779
0.528055 0.772259 2.2166
0.581253 0.726387 2.28429
0.628337 0.709073 2.26052
0.611718 0.716722 2.20193
0.634812 0.715626 2.24448
0.646846 0.786867 2.21888
0.651531 0.77163 2.29189
0.655683 0.763482 2.22209
0.728341 0.724055 2.28025
0.711989 0.793946 2.29086
0.752747 0.740678 2.20773
0.718467 0.752716 2.22427
0.759932 0.755899 2.27975
0.772216 0.796754 2.24876
0.819247 0.701331 2.23448
0.857204 0.719113 2.28904
0.878543 0.795546 2.29278
0.821001 0.713579 2.22939
0.824014 0.718239 2.27084
0.884561 0.736816 2.28068
0.985761 0.796874 2.22129
0.970954 0.769668 2.25315
0.955425 0.709251 2.22321
0.995185 0.76724 2.26963
0.918326 0.778831 2.27205
0.91188 0.768965 2.2646
1.00734 0.728727 2.25874
1.04851 0.746258 2.28095
1.07389 0.7862 2.23042
1.08622 0.723363 2.246
1.07812 0.761136 2.2891
1.0929 0.740251 2.25395
1.18996 0.746181 2.27097
1.15488 0.742442 2.21543
1.15963 0.709916 2.20846
1.12756 0.768093 2.22478
1.15664 0.74399 2.21223
1.17891 0.754118 2.27982
1.24113 0.773922 2.22236
1.28477 0.721734 2.27983
1.25655 0.759586 2.27286
1.27812 0.754347 2.24867
1.23191 0.771376 2.27296
1.2584 0.762933 2.20132
1.35616 0.757238 2.27636
1.3095 0.769495 2.20596
1.3605 0.706537 2.27783
1.35671 0.730463 2.28039
1.31266 0.758897 2.2805
1.39231 0.722866 2.26187
1.48389 0.771809 2.27216
1.40161 0.744872 2.29301
1.41641 0.790973 2.2547
1.48487 0.720826 2.22622
1.43315 0.790538 2.29146
1.47145 0.765188 2.27056
1.53292 0.781366 2.24459
1.51316 0.798817 2.22133
1.58169 0.784238 2.25551
1.54204 0.720446 2.247
1.51351 0.735161 2.28394
1.58064 0.742177 2.27337
1.69365 0.767984 2.29047
1.63582 0.72586 2.26065
1.64432 0.745373 2.22557
1.6889 0.712057 2.21408
1.67099 0.727938 2.27448
1.66602 0.728975 2.28241
1.71832 0.765943 2.21916
1.76358 0.759601 2.25589
1.75469 0.713512 2.21038
1.7281 0.746016 2.22255
1.74648 0.716995 2.29264
1.7626 0.773455 2.27529
1.88213 0.798445 2.2956
1.81624 0.778776 2.23876
1.82456 0.793092 2.27329
1.84728 0.755723 2.26135
1.80961 0.785833 2.29309
1.86269 0.728279 2.20936
1.9638 0.791659 2.21668
1.96757 0.738666 2.29021
1.9847 0.733212 2.20551
1.97311 0.726197 2.20372
1.99192 0.784618 2.24022
1.9454 0.731876 2.23177
2.06799 0.704822 2.23938
2.04802 0.741046 2.26982
2.07234 0.777226 2.25761
2.08519 0.783064 2.21343
2.00741 0.744368 2.29119
2.00318 0.746795 2.20698
2.19002 0.738621 2.24366
2.11668 0.733007 2.25194
2.11527 0.756974 2.24449
2.11017 0.755526 2.27713
2.15656 0.774348 2.22809
2.14503 0.744657 2.28707
2.25113 0.77032 2.23399
2.21939 0.795313 2.20399
2.25564 0.756578 2.27603
2.29567 0.751005 2.21952
2.22512 0.774318 2.21154
2.23922 0.735709 2.24626
2.37177 0.788542 2.29774
2.33159 0.702383 2.25372
2.32773 0.756144 2.25499
2.37905 0.774718 2.20561
2.31074 0.740992 2.21812
2.36609 0.787345 2.29345
2.46697 0.775295 2.29859
2.419 0.784582 2.29208
2.48357 0.740716 2.29162
2.46085 0.714119 2.26385
2.44078 0.779317 2.28894
2.46532 0.781846 2.23533
2.51248 0.706692 2.27136
2.54316 0.772411 2.28339
2.52323 0.73749 2.22644
2.57124 0.709567 2.23566
2.58182 0.706487 2.25326
2.58615 0.775209 2.21486
2.65832 0.704024 2.23302
2.67346 0.795124 2.27187
2.6669 0.794494 2.20984
2.62178 0.767359 2.20336
2.66039 0.77628 2.28993
2.60433 0.79451 2.26287
2.70572 0.754502 2.27912
2.73797 0.733565 2.29664
2.72511 0.723366 2.21057
2.7617 0.721218 2.22857
2.70199 0.761396 2.28883
2.79367 0.761779 2.23783
2.89457 0.724032 2.25827
2.86261 0.759011 2.29705
2.83821 0.780455 2.24782
2.80595 0.719652 2.26898
2.85884 0.724001 2.21162
2.84788 0.706824 2.26781
2.9398 0.705823 2.23662
2.91934 0.702252 2.25745
2.95298 0.786498 2.28132
2.99694 0.789991 2.26466
2.9625 0.785079 2.22939
2.91197 0.759215 2.25809
3.04003 0.738894 2.28358
3.00924 0.755817 2.22153
3.05414 0.754246 2.21452
3.0418 0.72396 2.29693
3.05645 0.773852 2.20257
3.06902 0.747346 2.25697
0.417121 0.880981 2.26836
0.407635 0.887439 2.20824
0.427158 0.812659 2.21916
0.452408 0.828286 2.26141
0.425136 0.816251 2.27886
0.456354 0.809466 2.25431
0.505953 0.861165 2.20543
0.566143 0.863586 2.24595
0.515545 0.865819 2.28448
0.539517 0.833114 2.21128
0.509986 0.856541 2.28008
0.576005 0.823575 2.24805
0.6816 0.820587 2.20852
0.643916 0.896139 2.24196
0.681794 0.879953 2.20302
0.683746 0.867349 2.29084
0.601257 0.895386 2.25733
0.679702 0.852751 2.25688
0.742132 0.856289 2.25978
0.717178 0.847122 2.21874
0.734779 0.833154 2.29773
0.703993 0.827029 2.24417
0.763197 0.862128 2.2617
0.701999 0.890345 2.2348
0.8566 0.844074 2.23612
0.855554 0.893616 2.23552
0.814613 0.806047 2.29865
0.810182 0.853567 2.23106
0.831176 0.886707 2.25875
0.896802 0.880914 2.28837
0.917032 0.836685 2.23114
0.976998 0.851557 2.23131
0.924989 0.896556 2.24634
0.961156 0.854977 2.23389
0.959581 0.883233 2.2642
0.908905 0.8168 2.21742
1.01738 0.828032 2.23235
1.07237 0.874197 2.23943
1.0784 0.871211 2.2056
1.06685 0.838419 2.25442
1.04799 0.851449 2.27778
1.02284 0.811893 2.29473
1.10913 0.864826 2.2023
1.16386 0.853279 2.20943
1.18024 0.879315 2.22936
1.13713 0.853119 2.28468
1.10483 0.85976 2.29661
1.11188 0.810082 2.21688
1.20538 0.819302 2.24525
1.2611 0.814503 2.29066
1.21919 0.89819 2.23437
1.23436 0.87324 2.21512
1.27906 0.82783 2.26287
1.22304 0.801376 2.27106
1.33756 0.824833 2.25113
1.31282 0.832816 2.28842
1.34613 0.878919 2.20557
1.37397 0.878611 2.22342
1.34553 0.871315 2.22476
1.33871 0.831991 2.26708
1.4844 0.887036 2.23572
1.42303 0.886978 2.2943
1.41316 0.857155 2.21801
1.43387 0.880475 2.25503
1.49778 0.819519 2.23552
1.43953 0.81636 2.22443
1.57359 0.833823 2.28279
1.53167 0.887645 2.28687
1.5602 0.868119 2.24208
1.56045 0.898661 2.25359
1.56489 0.862421 2.25758
1.5685 0.822582 2.20639
1.69621 0.807844 2.29313
1.68192 0.896305 2.23977
1.61576 0.881299 2.23923
1.62689 0.891561 2.29878
1.61919 0.863131 2.2578
1.68051 0.836626 2.21669
1.76968 0.818758 2.28717
1.71578 0.89185 2.20238
1.75385 0.865585 2.23089
1.75348 0.83492 2.27358
1.71776 0.85702 2.24399
1.75902 0.837705 2.20927
1.8731 0.873199 2.2922
1.88375 0.812336 2.23771
1.81418 0.894019 2.29555
1.83604 0.848263 2.27881
1.8098 0.830656 2.22013
1.80283 0.860133 2.22044
1.90164 0.805451 2.21557
1.9247 0.851365 2.23589
1.92532 0.805401 2.29641
1.91683 0.80184 2.2286
1.91117 0.833007 2.28059
1.92701 0.856432 2.29791
2.08199 0.807119 2.21735
2.03272 0.839959 2.22705
2.04359 0.83023 2.23955
2.07616 0.884459 2.21175
2.01502 0.85688 2.21897
2.07255 0.833774 2.22474
2.14008 0.884817 2.2881
2.12833 0.829033 2.29894
2.11314 0.802718 2.20263
2.15377 0.893413 2.23778
2.14774 0.809843 2.29656
2.1909 0.886477 2.26309
2.2879 0.863843 2.28581
2.25538 0.893484 2.22782
2.27059 0.815915 2.27154
2.23402 0.895919 2.28903
2.23467 0.84803 2.28496
2.2149 0.88979 2.29459
2.32123 0.829585 2.244
2.34409 0.808872 2.28453
2.31921 0.834399 2.22857
2.39847 0.845191 2.29547
2.31392 0.897716 2.25408
2.37115 0.877013 2.22562
2.47352 0.884347 2.2854
2.47013 0.85105 2.24474
2.49118 0.864838 2.27344
2.46574 0.808167 2.22272
2.42314 0.834916 2.29772
2.46451 0.833907 2.26409
2.54801 0.871001 2.22447
2.58853 0.891626 2.28456
2.5381 0.881451 2.23183
2.59027 0.836442 2.23042
2.51844 0.805149 2.26375
2.54178 0.828715 2.23222
2.68535 0.836508 2.22759
2.61314 0.837856 2.22225
2.67127 0.892415 2.24027
2.62929 0.848315 2.20199
2.69586 0.8436 2.24825
2.60286 0.885351 2.27073
2.74305 0.897513 2.23622
2.78668 0.880404 2.25952
2.79157 0.830301 2.29814
2.72333 0.828006 2.29368
2.72282 0.844658 2.28528
2.72873 0.847254 2.26169
2.82557 0.889425 2.24038
2.82785 0.872168 2.26172
2.80334 0.836372 2.28781
2.86253 0.861545 2.26557
2.81649 0.86221 2.22186
2.82631 0.802034 2.20933
2.97773 0.830363 2.27628
2.95292 0.877322 2.23798
2.91173 0.868657 2.25943
2.94376 0.836013 2.2819
2.93167 0.833988 2.22825
2.96032 0.817489 2.27016
3.06807 0.844326 2.26427
3.04497 0.852557 2.21278
3.07998 0.896061 2.2909
3.06195 0.87771 2.21757
3.02276 0.819274 2.20919
3.03559 0.892293 2.24481
0.407348 0.994383 2.26436
0.491099 0.947506 2.27895
0.494131 0.902078 2.29743
0.415082 0.91266 2.2383
0.460331 0.954844 2.25675
0.495374 0.983611 2.23444
0.589622 0.997168 2.29722
0.546015 0.930206 2.29577
0.536886 0.901969 2.29171
0.523024 0.985575 2.21928
0.516771 0.944646 2.23525
0.547769 0.93499 2.23492
0.603706 0.941418 2.2722
0.618998 0.94439 2.29067
0.688259 0.916645 2.29856
0.674261 0.925474 2.29
0.655805 0.992415 2.29375
0.696786 0.943593 2.29639
0.724175 0.936985 2.21811
0.763612 0.910879 2.2393
0.747651 0.930343 2.22178
0.788546 0.976757 2.23856
0.777096 0.962464 2.25667
0.775487 0.993879 2.28635
0.811257 0.977811 2.20353
0.88375 0.932581 2.20562
0.83227 0.917292 2.2022
0.834863 0.977037 2.22526
0.815828 0.920065 2.22005
0.846914 0.996192 2.20368
0.993358 0.962157 2.21027
0.973291 0.97622 2.25339
0.97386 0.979509 2.22379
0.914342 0.98247 2.20718
0.915345 0.917058 2.20693
0.994021 0.921094 2.29314
1.04315 0.933781 2.20184
1.03977 0.979861 2.26931
1.0585 0.952558 2.22009
1.04835 0.92573 2.25678
1.04803 0.907162 2.21335
1.02279 0.969754 2.23162
1.19798 0.92568 2.29028
1.16343 0.978529 2.23608
1.11285 0.970432 2.24495
1.13505 0.98004 2.23145
1.16089 0.911853 2.20179
1.17645 0.940188 2.20291
1.23202 0.978068 2.27839
1.26649 0.980417 2.21072
1.21664 0.933174 2.23537
1.25541 0.90575 2.27747
1.26861 0.970918 2.28122
1.2534 0.931148 2.22358
1.36304 0.911639 2.23023
1.30892 0.940834 2.25888
1.35947 0.903016 2.26533
1.39665 0.993411 2.23158
1.37569 0.991056 2.21558
1.38901 0.903256 2.27773
1.44883 0.962849 2.21909
1.46233 0.993407 2.25511
1.41896 0.924187 2.29117
1.4815 0.931771 2.2411
1.47526 0.992419 2.24775
1.48768 0.964101 2.26611
1.58041 0.924405 2.21397
1.5583 0.975254 2.26285
1.51894 0.951059 2.29182
1.51196 0.979634 2.23678
1.54597 0.987246 2.20201
1.57762 0.986232 2.2637
1.65343 0.928356 2.23309
1.65778 0.902961 2.24626
1.63047 0.981105 2.26699
1.64134 0.969762 2.25848
1.66048 0.927658 2.24734
1.6984 0.973842 2.28928
1.73048 0.913326 2.23945
1.74734 0.979007 2.20519
1.76689 0.964204 2.20929
1.72068 0.92495 2.29729
1.74594 0.948205 2.25539
1.775 0.960455 2.29141
1.89124 0.988774 2.25881
1.82026 0.920703 2.24255
1.82716 0.97156 2.23684
1.85492 0.970008 2.26805
1.85337 0.937009 2.28005
1.81013 0.924747 2.28689
1.95175 0.948352 2.22085
1.9153 0.951141 2.25126
1.97402 0.994961 2.28489
1.95818 0.913427 2.20659
1.93211 0.989538 2.25141
1.92948 0.948953 2.25313
2.0712 0.903911 2.27185
2.01791 0.910923 2.22492
2.00144 0.96036 2.26694
2.0141 0.942922 2.29207
2.0687 0.95418 2.22577
2.005 0.967323 2.23232
2.11005 0.962174 2.27516
2.11702 0.972221 2.24409
2.17603 0.907802 2.28387
2.13239 0.932563 2.29346
2.15148 0.96906 2.21687
2.1582 0.902889 2.29
2.28616 0.970055 2.29066
2.24573 0.965527 2.22511
2.28239 0.901192 2.26026
2.20381 0.918077 2.27056
2.29064 0.94593 2.20762
2.25157 0.992028 2.27683
2.32395 0.962689 2.21559
2.39108 0.982311 2.21454
2.38932 0.993869 2.29651
2.37362 0.97669 2.281
2.35642 0.91872 2.28168
2.30599 0.997706 2.24876
2.45611 0.998585 2.20344
2.46702 0.905967 2.2981
2.47133 0.996435 2.2187
2.45105 0.972325 2.27438
2.49261 0.971429 2.28619
2.49497 0.996431 2.23538
2.54826 0.973066 2.2802
2.503 0.908413 2.23113
2.53681 0.909517 2.27247
2.51672 0.917487 2.25709
2.56141 0.960632 2.24621
2.58219 0.901473 2.21859
2.67513 0.971677 2.20189
2.62586 0.929783 2.21079
2.63795 0.938637 2.28942
2.62589 0.993006 2.22549
2.66396 0.932422 2.25796
2.66048 0.97683 2.2353
2.7913 0.915671 2.25999
2.73357 0.934911 2.22622
2.78031 0.959001 2.25141
2.72264 0.939737 2.27655
2.70465 0.994891 2.27
2.71163 0.912245 2.27148
2.80662 0.934886 2.2168
2.83853 0.961601 2.2023
2.85822 0.934395 2.23204
2.8973 0.994195 2.29691
2.80432 0.985864 2.23687
2.88209 0.959854 2.27231
2.93587 0.910125 2.23662
2.92797 0.971324 2.2388
2.9225 0.94598 2.23968
2.98399 0.939379 2.28413
2.99712 0.955843 2.26928
2.99226 0.972323 2.26538
3.0793 0.968144 2.28515
3.09165 0.967379 2.23103
3.09462 0.982614 2.29485
3.07599 0.958338 2.2439
3.05662 0.967201 2.24292
3.07425 0.954195 2.24649
0.49733 1.08551 2.27748
0.466673 1.00197 2.27195
0.416387 1.0467 2.23908
0.436875 1.02364 2.20855
0.456723 1.0488 2.24698
0.483359 1.0475 2.27793
0.58448 1.07974 2.25931
0.537353 1.00941 2.21654
0.593523 1.04542 2.21473
0.584508 1.03725 2.28212
0.582765 1.01084 2.28596
0.524671 1.08593 2.2989
0.654181 1.08109 2.24162
0.668929 1.0722 2.2116
0.676 1.07008 2.23352
0.673704 1.01116 2.27526
0.632971 1.06625 2.26173
0.684916 1.07281 2.28513
0.709264 1.06072 2.26337
0.794373 1.08101 2.28627
0.742244 1.09015 2.26498
0.770678 1.0183 2.26972
0.733452 1.05267 2.27706
0.717815 1.03094 2.26837
0.884567 1.0658 2.2472
0.829994 1.04005 2.21765
0.84 1.03065 2.22581
0.812528 1.00795 2.27261
0.812811 1.02229 2.2944
0.811231 1.07501 2.23489
0.941057 1.07927 2.22149
0.915139 1.06959 2.29112
0.991609 1.08493 2.2267
0.997723 1.03099 2.23479
0.924452 1.03474 2.20907
0.918886 1.08335 2.21565
1.00611 1.03781 2.24139
1.06517 1.03975 2.25364
1.05201 1.00702 2.22055
1.08934 1.04798 2.28312
1.03418 1.02243 2.26458
1.00312 1.05942 2.28834
1.11648 1.09764 2.24186
1.16469 1.09709 2.21723
1.11718 1.02355 2.24437
1.17287 1.06116 2.29335
1.10889 1.04693 2.21481
1.15928 1.01543 2.26898
1.28008 1.06561 2.27905
1.26015 1.05701 2.283
1.24298 1.04529 2.2963
1.24467 1.09474 2.2853
1.28224 1.08613 2.28717
1.27747 1.06919 2.29874
1.38723 1.09678 2.20198
1.33037 1.05262 2.25312
1.30384 1.06136 2.28008
1.39332 1.017 2.23336
1.35489 1.04868 2.28248
1.37613 1.06927 2.27458
1.40103 1.01078 2.26526
1.46045 1.03759 2.24111
1.40253 1.07111 2.23483
1.41253 1.00363 2.2658
1.41305 1.02787 2.22079
1.43363 1.09788 2.26051
1.50573 1.06832 2.24495
1.53054 1.07522 2.22907
1.52899 1.0276 2.26908
1.59139 1.01341 2.20961
1.57267 1.04866 2.26164
1.58985 1.039 2.22494
1.62041 1.08435 2.28618
1.66491 1.06891 2.23913
1.65465 1.06858 2.2251
1.65649 1.02041 2.29008
1.65191 1.09637 2.26639
