ply
format ascii 1.0
element vertex 1773
property float x
property float y
property float z
end_header
0.861361 0.118467 0.250284
0.878093 0.102854 0.241686
0.872246 0.104349 0.240717
0.881435 0.106735 0.254495
0.888552 0.116908 0.259064
0.899614 0.113643 0.247813
0.882596 0.113096 0.259638
0.0828573 0.133433 0.246524
0.0950443 0.139325 0.244723
0.0865603 0.126687 0.251784
0.0975246 0.138637 0.240625
0.107105 0.1313 0.255909
0.112086 0.124919 0.257534
0.110917 0.137108 0.242313
0.100611 0.128156 0.254289
0.13224 0.134854 0.256411
0.136074 0.128936 0.24252
0.138555 0.123404 0.243816
0.131325 0.13112 0.252776
0.155868 0.137118 0.241337
0.145142 0.132104 0.248434
0.148581 0.137442 0.244253
0.15056 0.120485 0.259541
0.169624 0.131984 0.240231
0.166659 0.139097 0.240664
0.176594 0.12314 0.249226
0.174822 0.133394 0.241556
0.181907 0.139139 0.256201
0.189565 0.12584 0.253318
0.188573 0.128113 0.258242
0.18186 0.139711 0.246655
0.203957 0.13848 0.240403
0.200841 0.131047 0.252213
0.201324 0.131913 0.244799
0.207456 0.130213 0.257132
0.222052 0.120592 0.242355
0.238717 0.138156 0.254587
0.22293 0.133584 0.253391
0.231786 0.137894 0.245085
0.241917 0.131641 0.25882
0.256898 0.138069 0.258703
0.259146 0.133835 0.247232
0.254507 0.13079 0.247808
0.278771 0.129196 0.257683
0.264921 0.139252 0.253554
0.276793 0.133063 0.258047
0.267852 0.133383 0.256508
0.280714 0.129039 0.252978
0.284563 0.130396 0.256787
0.291845 0.12349 0.245687
0.295174 0.13192 0.254114
0.308924 0.122273 0.243718
0.305932 0.126577 0.253721
0.31933 0.126218 0.241688
0.311113 0.137211 0.245469
0.321728 0.122964 0.254248
0.325607 0.126449 0.241285
0.322943 0.13949 0.252632
0.325081 0.125897 0.247282
0.352695 0.132579 0.258273
0.344024 0.128416 0.258993
0.353308 0.130714 0.251234
0.35118 0.125296 0.245755
0.374302 0.128197 0.246376
0.374745 0.122946 0.248272
0.373401 0.13495 0.24517
0.369162 0.139506 0.248149
0.396143 0.135531 0.24695
0.386275 0.12664 0.24944
0.399118 0.137689 0.246173
0.387305 0.131015 0.258677
0.416538 0.127677 0.249407
0.41342 0.123674 0.258303
0.407393 0.122502 0.254271
0.410441 0.12029 0.255159
0.438939 0.133856 0.245612
0.421483 0.134526 0.243242
0.421795 0.120271 0.256769
0.435318 0.137924 0.245344
0.443748 0.124849 0.251624
0.440422 0.128103 0.257698
0.441419 0.139599 0.250808
0.458129 0.128253 0.259089
0.462963 0.136308 0.245455
0.463977 0.1273 0.241141
0.470352 0.121362 0.250529
0.462346 0.127276 0.258806
0.488926 0.128289 0.244048
0.488283 0.139098 0.242909
0.489776 0.121813 0.241953
0.491723 0.138144 0.257805
0.512616 0.121859 0.246707
0.508641 0.135803 0.258156
0.518417 0.136422 0.250663
0.511041 0.132516 0.25662
0.538788 0.127806 0.241482
0.539419 0.136277 0.252735
0.536764 0.131089 0.257355
0.527217 0.120294 0.244163
0.552076 0.123714 0.254713
0.555871 0.13252 0.258366
0.543056 0.135049 0.251227
0.550349 0.133227 0.2423
0.575046 0.132128 0.258265
0.572603 0.125496 0.249619
0.574544 0.137717 0.244048
0.562758 0.131763 0.248851
0.584954 0.131455 0.255104
0.589657 0.121929 0.255697
0.59855 0.138194 0.251315
0.590383 0.137494 0.252164
0.600323 0.132727 0.247026
0.61107 0.133286 0.256936
0.602065 0.120924 0.244546
0.606929 0.120711 0.24862
0.639291 0.125124 0.248966
0.624772 0.134319 0.240327
0.638274 0.127121 0.246339
0.631352 0.127062 0.24196
0.655194 0.133567 0.253941
0.647926 0.135127 0.249403
0.655631 0.121312 0.241036
0.643694 0.1335 0.255219
0.664053 0.125205 0.244034
0.667285 0.138598 0.257022
0.677138 0.139295 0.247642
0.673144 0.137824 0.259063
0.698659 0.137163 0.256835
0.688773 0.130412 0.240439
0.686102 0.131358 0.256609
0.693452 0.1293 0.254529
0.711897 0.129132 0.251139
0.700988 0.132962 0.247663
0.711865 0.12292 0.242894
0.718361 0.13788 0.243876
0.736633 0.13599 0.241025
0.725693 0.126885 0.242808
0.72326 0.137412 0.243827
0.72703 0.129555 0.243821
0.74514 0.129407 0.251517
0.741855 0.134052 0.250632
0.742071 0.123668 0.250364
0.756156 0.134236 0.249476
0.772349 0.13408 0.243367
0.764829 0.12949 0.257425
0.775034 0.138023 0.24794
0.762422 0.132941 0.255072
0.790465 0.132527 0.24538
0.78484 0.137413 0.24686
0.781013 0.12444 0.249173
0.786241 0.139555 0.247737
0.802622 0.124647 0.242991
0.813611 0.137981 0.2577
0.800283 0.138307 0.257997
0.813786 0.136539 0.245845
0.827909 0.121229 0.250886
0.827839 0.134684 0.246195
0.832684 0.133685 0.255445
0.827339 0.135043 0.254353
0.856315 0.123887 0.258002
0.858263 0.137737 0.255841
0.855254 0.137115 0.254652
0.854528 0.138554 0.243685
0.871862 0.132416 0.2442
0.871074 0.13884 0.242517
0.8795 0.121964 0.241182
0.874059 0.125692 0.249048
0.895333 0.134854 0.242119
0.899068 0.129313 0.243357
0.895308 0.133805 0.25406
0.881926 0.122099 0.247039
0.911007 0.138871 0.246302
0.916557 0.138131 0.258075
0.914342 0.138272 0.254769
0.901675 0.131251 0.254961
0.0963075 0.143605 0.255404
0.0906412 0.146311 0.248056
0.0912871 0.152334 0.240424
0.0879097 0.155035 0.247986
0.100863 0.159418 0.24888
0.118254 0.158524 0.258399
0.102755 0.146718 0.247434
0.118718 0.151692 0.240567
0.135358 0.151559 0.253133
0.13139 0.158077 0.242978
0.132126 0.154724 0.25774
0.138082 0.144451 0.252464
0.156472 0.156291 0.240933
0.146059 0.142828 0.241897
0.152856 0.152376 0.255023
0.146515 0.157073 0.244221
0.176293 0.159709 0.240723
0.172953 0.152986 0.250525
0.174739 0.154538 0.244549
0.163447 0.145472 0.252459
0.194389 0.147475 0.24272
0.183193 0.154486 0.248616
0.18703 0.155081 0.253049
0.188004 0.141166 0.245467
0.205087 0.14879 0.259737
0.201556 0.141184 0.243687
0.205425 0.147014 0.245571
0.203398 0.142482 0.250362
0.222349 0.149774 0.251743
0.221876 0.155964 0.249314
0.232153 0.142145 0.258857
0.221489 0.141611 0.251225
0.251418 0.159422 0.250601
0.257124 0.156639 0.254723
0.242355 0.154563 0.25649
0.245983 0.143157 0.249468
0.260492 0.142363 0.258354
0.26846 0.144674 0.259448
0.261997 0.157665 0.258806
0.264461 0.151443 0.254386
0.292846 0.156225 0.253314
0.284847 0.148875 0.253173
0.284179 0.140651 0.244872
0.291727 0.155281 0.247199
0.305772 0.144784 0.259039
0.303938 0.151317 0.245782
0.31918 0.148513 0.245425
0.315398 0.157437 0.242781
0.334263 0.157052 0.243947
0.333896 0.152566 0.257505
0.332923 0.147128 0.240222
0.324608 0.157211 0.257823
0.34387 0.150584 0.24366
0.346195 0.157049 0.247105
0.347013 0.148007 0.244038
0.357048 0.151016 0.251779
0.377973 0.143304 0.251879
0.363122 0.14839 0.242565
0.371414 0.153338 0.241238
0.363299 0.14531 0.259071
0.392703 0.148304 0.242635
0.38049 0.146491 0.2407
0.381918 0.145013 0.254664
0.380482 0.15251 0.251602
0.402167 0.158952 0.254865
0.413708 0.142105 0.241624
0.410966 0.143303 0.255925
0.402306 0.153507 0.242336
0.424225 0.144464 0.258875
0.428153 0.147615 0.251526
0.430286 0.158877 0.253564
0.425644 0.15676 0.252577
0.448898 0.152086 0.257712
0.454805 0.153278 0.247522
0.449452 0.149727 0.258959
0.456655 0.159106 0.242263
0.468209 0.151133 0.25827
0.477974 0.157731 0.258077
0.468023 0.1423 0.252876
0.471063 0.145276 0.253469
0.48466 0.154926 0.259047
0.494636 0.156833 0.240895
0.496143 0.141071 0.251985
0.491636 0.155981 0.246836
0.517162 0.148404 0.249089
0.518691 0.142177 0.259217
0.506505 0.159716 0.254835
0.515829 0.154681 0.250375
0.520326 0.149751 0.251612
0.534528 0.150244 0.244278
0.537297 0.14621 0.255252
0.527476 0.14727 0.254823
0.559253 0.144252 0.241267
0.545288 0.158891 0.249102
0.547722 0.147314 0.258991
0.557536 0.154286 0.253035
0.565116 0.158422 0.259379
0.570222 0.152911 0.241106
0.57584 0.151334 0.255189
0.567033 0.153332 0.254794
0.592517 0.145933 0.258074
0.58176 0.153 0.244311
0.588425 0.147623 0.248021
0.581268 0.158367 0.248405
0.609698 0.15803 0.25139
0.603896 0.157877 0.257039
0.600625 0.158462 0.252961
0.600944 0.154377 0.24753
0.632005 0.147899 0.250511
0.629241 0.154897 0.249345
0.623461 0.148174 0.240755
0.639506 0.149403 0.244002
0.658143 0.15277 0.249272
0.656955 0.144434 0.257854
0.645286 0.155148 0.251476
0.646966 0.14724 0.25705
0.667833 0.157871 0.245497
0.678839 0.145312 0.246959
0.665503 0.152708 0.241152
0.679156 0.141435 0.245616
0.681962 0.143584 0.254016
0.684266 0.148969 0.246478
0.691239 0.159646 0.258079
0.69175 0.152903 0.254706
0.708763 0.152642 0.251753
0.707033 0.154083 0.24591
0.703936 0.150884 0.254702
0.715822 0.141974 0.246527
0.73189 0.157606 0.254532
0.733446 0.141176 0.241098
0.733844 0.153788 0.244044
0.72426 0.159018 0.253424
0.75712 0.14917 0.257165
0.75519 0.140468 0.253563
0.757364 0.147348 0.25652
0.744087 0.144061 0.252994
0.779751 0.147461 0.241419
0.777315 0.157572 0.244521
0.772024 0.140949 0.252758
0.774721 0.142956 0.247658
0.795777 0.146903 0.24307
0.799049 0.144965 0.24863
0.78029 0.141219 0.24246
0.784705 0.153865 0.243594
0.81759 0.149565 0.252675
0.805423 0.148254 0.248765
0.808532 0.146848 0.24195
0.818325 0.151532 0.257023
0.835052 0.143938 0.25462
0.824906 0.144452 0.247985
0.821214 0.156991 0.250732
0.831507 0.147202 0.241029
0.850932 0.154101 0.244512
0.852045 0.146235 0.25733
0.848116 0.144513 0.24835
0.859526 0.148323 0.240491
0.864994 0.154703 0.248566
0.864013 0.147561 0.250795
0.871826 0.159199 0.245732
0.861546 0.155564 0.24363
0.888628 0.15827 0.251771
0.889469 0.146526 0.251416
0.883951 0.151047 0.259416
0.899248 0.15466 0.254507
0.904321 0.144617 0.249334
0.91084 0.158984 0.241026
0.914556 0.148927 0.259423
0.916781 0.143376 0.244434
0.0952579 0.168489 0.258174
0.0933772 0.167959 0.242494
0.0957439 0.178889 0.243069
0.0809316 0.172347 0.241564
0.102032 0.168071 0.2416
0.101456 0.176367 0.243291
0.101634 0.167517 0.247836
0.112682 0.172529 0.250766
0.135513 0.164706 0.252959
0.12963 0.164303 0.255001
0.137373 0.17701 0.259755
0.122176 0.167627 0.244572
0.155636 0.166584 0.240583
0.149474 0.179117 0.248615
0.153237 0.174269 0.242319
0.14151 0.163441 0.258372
0.169405 0.163742 0.24255
0.161297 0.162755 0.250264
0.172714 0.164113 0.24465
0.16029 0.171954 0.242419
0.198982 0.161434 0.259463
0.193382 0.170765 0.252863
0.185265 0.161839 0.259461
0.198805 0.17824 0.245696
0.21349 0.177823 0.246064
0.203651 0.165721 0.258101
0.200242 0.163541 0.249693
0.203438 0.170446 0.257345
0.227769 0.165561 0.253119
0.235504 0.171851 0.243138
0.220277 0.170665 0.252046
0.238405 0.173118 0.258296
0.247296 0.160767 0.252064
0.258169 0.166451 0.257131
0.247686 0.174029 0.242891
0.257022 0.160948 0.242643
0.260324 0.166729 0.254444
0.279792 0.176144 0.251554
0.268193 0.164479 0.252079
0.270958 0.168473 0.250426
0.2877 0.172336 0.256591
0.286462 0.175449 0.250835
0.280447 0.17305 0.256567
0.283522 0.162367 0.251459
0.30861 0.171251 0.259065
0.312005 0.167346 0.258899
0.304268 0.175812 0.242431
0.313393 0.176628 0.2416
0.336345 0.170982 0.242673
0.335677 0.16942 0.251229
0.321574 0.173941 0.254391
0.336448 0.163603 0.248192
0.344906 0.173872 0.258305
0.350561 0.165877 0.243138
0.35185 0.163426 0.259645
0.347178 0.160429 0.241646
0.366039 0.165298 0.24716
0.376729 0.177386 0.247981
0.369209 0.178848 0.252529
0.369198 0.163535 0.246549
0.393207 0.173044 0.257835
0.394661 0.17044 0.252709
0.385763 0.177566 0.258557
0.385599 0.174816 0.24345
0.414081 0.169707 0.244909
0.402686 0.167735 0.249325
0.411622 0.162039 0.243757
0.400578 0.178374 0.257277
0.429647 0.17757 0.257137
0.42074 0.162858 0.259346
0.435293 0.178679 0.252458
0.421337 0.171202 0.257725
0.452282 0.162838 0.258109
0.452547 0.177533 0.258506
0.450216 0.176128 0.253491
0.447571 0.169156 0.242744
0.461249 0.167728 0.251811
0.466504 0.165702 0.245963
0.463598 0.162416 0.249731
0.477104 0.164655 0.250697
0.481647 0.163898 0.25929
0.496579 0.166677 0.244481
0.487876 0.160543 0.248
0.481659 0.167292 0.24296
0.503534 0.16129 0.253544
0.518983 0.169557 0.246815
0.518648 0.17087 0.258864
0.516916 0.174063 0.241506
0.521352 0.167586 0.259603
0.525917 0.163402 0.241234
0.537279 0.162203 0.247184
0.534325 0.169181 0.240243
0.549164 0.172278 0.244973
0.544158 0.160734 0.249033
0.545502 0.169566 0.241801
0.541226 0.177103 0.255217
0.575893 0.177543 0.250627
0.561623 0.17206 0.246396
0.576737 0.16753 0.253234
0.570818 0.169285 0.240877
0.58711 0.175314 0.247143
0.592483 0.164366 0.256012
0.593662 0.170745 0.242434
0.586492 0.175107 0.253846
0.61887 0.16575 0.242995
0.603497 0.173721 0.252611
0.609223 0.175352 0.243986
0.613507 0.164964 0.257752
0.637602 0.165423 0.244852
0.636172 0.176211 0.254572
0.638768 0.166919 0.255429
0.629015 0.164444 0.25894
0.654035 0.17959 0.252833
0.642862 0.178588 0.244904
0.640224 0.169688 0.250661
0.64734 0.172635 0.248609
0.669601 0.162883 0.241424
0.678788 0.179597 0.259065
0.677103 0.17916 0.251479
0.665335 0.161949 0.254912
0.687784 0.173753 0.255887
0.699632 0.173938 0.24073
0.691661 0.167329 0.25107
0.696737 0.172029 0.247224
0.702087 0.172434 0.244219
0.703439 0.169502 0.252896
0.714637 0.164439 0.241078
0.700393 0.162255 0.252709
0.72773 0.175336 0.244876
0.72379 0.164865 0.259466
0.735806 0.174654 0.256732
0.731594 0.164396 0.247618
0.748934 0.166056 0.258369
0.741117 0.175273 0.251088
0.756182 0.165704 0.257508
0.744281 0.176643 0.243315
0.763055 0.173119 0.246929
0.766868 0.160851 0.244809
0.777493 0.174179 0.241883
0.769047 0.170693 0.25296
0.793317 0.160908 0.250425
0.797456 0.178556 0.243482
0.793354 0.170949 0.250224
0.790718 0.173279 0.247958
0.812285 0.162001 0.251206
0.801733 0.173315 0.244494
0.805822 0.16439 0.243313
0.81362 0.179094 0.244649
0.821278 0.160909 0.250876
0.839176 0.17581 0.24877
0.825335 0.178824 0.259418
0.832316 0.165531 0.242434
0.849609 0.179 0.25961
0.846716 0.167946 0.242855
0.843006 0.17194 0.257814
0.854279 0.163692 0.247192
0.86897 0.176444 0.242896
0.87263 0.169725 0.242186
0.863516 0.167101 0.245836
0.873277 0.164119 0.241093
0.883092 0.167229 0.242814
0.894059 0.172038 0.255391
0.896862 0.166214 0.257989
0.892785 0.175503 0.258659
0.914075 0.171404 0.245016
0.910906 0.178996 0.257059
0.917791 0.160323 0.255936
0.900643 0.176203 0.246794
0.234232 0.0284823 0.266819
0.223891 0.037905 0.260327
0.229342 0.032945 0.266901
0.231992 0.0289574 0.278505
0.255723 0.0235084 0.276943
0.255536 0.0267588 0.268935
0.242537 0.037883 0.260656
0.253261 0.0241527 0.271804
0.263173 0.0235765 0.271425
0.262712 0.0354168 0.275672
0.267947 0.0374065 0.266301
0.277765 0.0353147 0.261521
0.297769 0.0385078 0.27706
0.286668 0.0370872 0.27799
0.296502 0.0226256 0.26482
0.283533 0.0347098 0.272793
0.30088 0.0205904 0.269343
0.317157 0.026385 0.278845
0.307243 0.0335933 0.266886
0.303359 0.0246945 0.268594
0.329693 0.0302946 0.268924
0.32761 0.0347154 0.27581
0.338736 0.0233368 0.27637
0.328751 0.0353741 0.272258
0.345595 0.0350783 0.274569
0.346003 0.0332557 0.264865
0.355241 0.0371724 0.267643
0.348074 0.0230659 0.266661
0.367314 0.0250974 0.273182
0.371154 0.0319589 0.262829
0.365723 0.0384272 0.275203
0.365134 0.0238562 0.277187
0.380313 0.0248589 0.269368
0.393053 0.0302058 0.266582
0.395341 0.0292961 0.275469
0.382344 0.0372566 0.267347
0.419791 0.0294739 0.264294
0.418588 0.0388807 0.263301
0.405989 0.0361985 0.261875
0.404036 0.0268712 0.274757
0.432171 0.0209128 0.261508
0.429415 0.0232184 0.263301
0.422348 0.0329174 0.268624
0.422285 0.0310952 0.274666
0.450677 0.0281199 0.267426
0.448049 0.0360619 0.262532
0.449593 0.0275403 0.264377
0.450998 0.037923 0.274905
0.468233 0.0229114 0.279769
0.465337 0.022703 0.263733
0.47118 0.0312538 0.275589
0.465687 0.0247191 0.266249
0.496641 0.0335654 0.277102
0.48733 0.032834 0.274945
0.493253 0.0397839 0.270554
0.482853 0.0235132 0.271756
0.519124 0.0252171 0.278631
0.512699 0.037497 0.267344
0.518006 0.021651 0.263262
0.519465 0.033016 0.26416
0.528016 0.0334542 0.274762
0.522876 0.0241482 0.270763
0.522888 0.0267345 0.271418
0.524913 0.0220086 0.268076
0.545652 0.0353987 0.262176
0.540971 0.0222567 0.26877
0.543758 0.0382701 0.265435
0.549096 0.032361 0.270796
0.561351 0.0302903 0.26669
0.56317 0.0397023 0.266044
0.568877 0.0375194 0.270899
0.578984 0.0338236 0.260543
0.580397 0.0361395 0.277461
0.593204 0.0326919 0.274861
0.598873 0.0395358 0.260962
0.582894 0.0236208 0.268034
0.617036 0.0316316 0.260365
0.608879 0.0368456 0.267137
0.614021 0.020646 0.267659
0.611676 0.0352702 0.260607
0.638161 0.0379048 0.26291
0.627858 0.0225426 0.267684
0.62321 0.0251762 0.267786
0.626855 0.0273846 0.267756
0.656862 0.0378891 0.260649
0.645885 0.0206104 0.261024
0.642693 0.0231223 0.268996
0.658323 0.0320836 0.26444
0.667417 0.0321133 0.272544
0.671323 0.0340346 0.275306
0.664538 0.0252972 0.276132
0.660568 0.0261296 0.273922
0.68298 0.0329701 0.262315
0.691248 0.03473 0.26659
0.692786 0.0248877 0.270402
0.691447 0.0208878 0.2773
0.712585 0.0270821 0.267493
0.701929 0.0217459 0.279648
0.709698 0.0395575 0.261962
0.71143 0.0367044 0.274248
0.72127 0.0380953 0.260717
0.726887 0.029421 0.276899
0.730544 0.0271241 0.261898
0.723915 0.0250843 0.268318
0.756124 0.0381348 0.272496
0.741255 0.031595 0.279776
0.745398 0.0303438 0.260494
0.742503 0.02825 0.275916
0.771514 0.0219833 0.279136
0.767096 0.0233405 0.27336
0.77557 0.0355018 0.275138
0.774324 0.034173 0.275914
0.189424 0.0466391 0.269196
0.197172 0.0479357 0.274849
0.180365 0.0539435 0.276205
0.192492 0.0483708 0.274058
0.206009 0.0592024 0.26335
0.214241 0.0491401 0.263673
0.208862 0.0437665 0.279692
0.217248 0.0543099 0.268524
0.234588 0.0456379 0.265755
0.230951 0.0455834 0.264469
0.23358 0.0529457 0.26363
0.235741 0.0486682 0.261542
0.256578 0.040956 0.276734
0.259325 0.0507633 0.266642
0.257753 0.0451958 0.263471
0.249143 0.0466683 0.262619
0.265607 0.0479653 0.276061
0.272424 0.0526279 0.279227
0.274504 0.0469361 0.271729
0.275174 0.0521542 0.275538
0.282925 0.0551261 0.276773
0.296102 0.0531787 0.273102
0.286535 0.0461582 0.26564
0.297943 0.0563863 0.277578
0.317716 0.042469 0.279533
0.316249 0.052589 0.270952
0.30503 0.054654 0.265665
0.308502 0.0589526 0.279451
0.325149 0.0592959 0.279669
0.324359 0.0595666 0.264453
0.336165 0.0478199 0.270276
0.338134 0.0575844 0.261759
0.355999 0.0523339 0.279266
0.352136 0.0480109 0.264045
0.35603 0.0444298 0.260526
0.343698 0.0451801 0.267193
0.372887 0.057258 0.276082
0.374816 0.0469053 0.265075
0.374189 0.0448043 0.26562
0.374864 0.0427242 0.276896
0.381127 0.0537698 0.260563
0.399039 0.0522164 0.273336
0.388722 0.0451623 0.26094
0.387681 0.0479906 0.262204
0.403021 0.0452448 0.262038
0.402516 0.0561237 0.277068
0.408665 0.057244 0.275718
0.408518 0.049079 0.271736
0.424065 0.0566302 0.260863
0.430768 0.0468025 0.266124
0.430825 0.0505242 0.277985
0.42714 0.0561296 0.261019
0.456061 0.0404466 0.269057
0.446853 0.0483416 0.263661
0.45518 0.0471515 0.267058
0.441114 0.058471 0.260676
0.473558 0.0510574 0.26568
0.470249 0.0521218 0.268082
0.460515 0.0433075 0.273224
0.47551 0.0411684 0.263356
0.484497 0.0555551 0.279488
0.481845 0.0574194 0.274773
0.490214 0.0577983 0.264246
0.480777 0.0525039 0.26677
0.508789 0.0536956 0.268789
0.508163 0.0485138 0.271491
0.504098 0.053701 0.277462
0.512172 0.056033 0.278829
0.524867 0.0555009 0.279783
0.525809 0.0440041 0.265475
0.523516 0.0442146 0.262384
0.528565 0.0520283 0.266141
0.556683 0.0559642 0.279787
0.550558 0.0552085 0.270798
0.552997 0.0495505 0.260934
0.555232 0.056523 0.265054
0.562929 0.0575501 0.277873
0.562206 0.0472811 0.278203
0.578687 0.0418724 0.271172
0.579639 0.0527248 0.272159
0.592397 0.0476749 0.26089
0.596185 0.0433321 0.264652
0.592561 0.0533213 0.264379
0.596145 0.057302 0.264769
0.610779 0.047502 0.278204
0.614086 0.0427214 0.276978
0.60671 0.0510126 0.273702
0.606938 0.056176 0.261684
0.639609 0.0527377 0.269477
0.622857 0.0581009 0.276434
0.635429 0.051242 0.271007
0.62709 0.0557233 0.26456
0.656827 0.0438 0.272051
0.647722 0.0549145 0.267911
0.651768 0.0593638 0.26619
0.652094 0.0478694 0.260377
0.67207 0.0437362 0.273499
0.662054 0.0567333 0.277091
0.663646 0.0467685 0.275054
0.675145 0.0503726 0.263979
0.696959 0.0508794 0.278867
0.694695 0.0493982 0.27595
0.683803 0.045173 0.279379
0.685155 0.0567403 0.279604
0.717494 0.0449646 0.260477
0.712025 0.0561402 0.263675
0.716694 0.0413344 0.273903
0.714157 0.0557983 0.27918
0.731576 0.0447525 0.279572
0.739551 0.0597701 0.265056
0.737843 0.0509649 0.276136
0.720676 0.0541591 0.260412
0.758565 0.05513 0.277541
0.744738 0.0530759 0.260437
0.758828 0.0567859 0.271418
0.747347 0.0415783 0.273915
0.773914 0.0508249 0.273297
0.777291 0.0521671 0.269674
0.772965 0.0510628 0.27458
0.768761 0.0452517 0.262887
0.786474 0.044225 0.263872
0.784866 0.0449208 0.262858
0.798879 0.0511544 0.275364
0.781944 0.0443752 0.271331
0.812271 0.0516143 0.268391
0.807578 0.0535921 0.277111
0.813415 0.0411039 0.270828
0.811734 0.0593759 0.264089
0.149761 0.0712565 0.275312
0.159398 0.0776964 0.273087
0.150621 0.0721731 0.261694
0.159139 0.0652612 0.276953
0.174441 0.0750314 0.263616
0.17242 0.0781137 0.271693
0.173243 0.0603218 0.269647
0.164825 0.0781218 0.262143
0.192181 0.077772 0.268846
0.190677 0.0717039 0.276402
0.186425 0.06602 0.272544
0.196403 0.0653252 0.274422
0.214028 0.0745378 0.266035
0.211453 0.0723057 0.264578
0.218354 0.0776472 0.266613
0.215674 0.079319 0.268942
0.235141 0.0684393 0.266823
0.23695 0.0775866 0.274397
0.223454 0.0782621 0.272805
0.238974 0.072362 0.266157
0.242835 0.0794263 0.278851
0.25846 0.0625515 0.275925
0.249492 0.0654162 0.277411
0.241917 0.0739568 0.267592
0.264997 0.0695024 0.272186
0.269557 0.0611755 0.272208
0.271328 0.068434 0.265439
0.260223 0.0766736 0.277279
0.295247 0.0707337 0.276637
0.295918 0.0780831 0.269463
0.287393 0.0666019 0.276621
0.292471 0.0759018 0.26054
0.307652 0.0754764 0.270422
0.309221 0.0660008 0.266628
0.313804 0.0713678 0.276206
0.315109 0.0763969 0.277614
0.336717 0.0714512 0.268456
0.33078 0.0752666 0.276836
0.328684 0.0669287 0.274194
0.334103 0.0765371 0.261844
0.356692 0.077715 0.272019
0.341236 0.0645719 0.274458
0.359416 0.0796003 0.266631
0.352553 0.066855 0.27828
0.374829 0.06088 0.265746
0.368691 0.0629046 0.275183
0.3684 0.0770076 0.269116
0.377562 0.0745372 0.264522
0.384105 0.0718577 0.272425
0.381963 0.06177 0.277856
0.381517 0.0751228 0.277803
0.38617 0.0649053 0.278098
0.418624 0.0648244 0.274771
0.408498 0.0678384 0.268873
0.413265 0.0674199 0.277155
0.408391 0.076588 0.269775
0.426759 0.0665647 0.278221
0.434791 0.0734348 0.267839
0.429005 0.0773362 0.272976
0.427795 0.0753104 0.273023
0.442848 0.0732845 0.274337
0.442751 0.0741052 0.269551
0.443908 0.0626728 0.265926
0.443628 0.0722425 0.266723
0.47122 0.0785834 0.273574
0.462913 0.0729749 0.262632
0.474923 0.0630019 0.273655
0.465504 0.0772608 0.275413
0.481895 0.0639284 0.263862
0.48778 0.0613894 0.274931
0.494297 0.061038 0.262063
0.483639 0.0747795 0.273425
0.508012 0.0618031 0.261777
0.517075 0.0718691 0.278851
0.507327 0.0772432 0.267066
0.519053 0.070915 0.262362
0.530402 0.0743728 0.271708
0.522643 0.0756134 0.270899
0.539737 0.0760409 0.264475
0.521594 0.0686844 0.272468
0.543968 0.0623858 0.271939
0.547149 0.0622287 0.271943
0.547547 0.0655855 0.277607
0.557474 0.067441 0.269762
0.566848 0.0757578 0.269735
0.566367 0.0665387 0.262551
0.573248 0.0712221 0.275411
0.565505 0.0767444 0.263426
0.596143 0.0726636 0.263078
0.581604 0.0776676 0.2729
0.597338 0.0755571 0.271299
0.591261 0.071788 0.275905
0.615726 0.0751148 0.269632
0.604064 0.0748476 0.270395
0.603721 0.0620602 0.272883
0.605948 0.0642781 0.266745
0.622997 0.0627007 0.273286
0.635675 0.0753286 0.264758
0.622238 0.0756961 0.270271
0.638743 0.0613662 0.276903
0.645298 0.0784093 0.272308
0.654391 0.0732092 0.276175
0.655031 0.0642721 0.274857
0.65732 0.0636571 0.277405
0.673257 0.0766276 0.276159
0.66065 0.0755649 0.278284
0.671552 0.0796487 0.272244
0.670343 0.0665305 0.279583
0.689773 0.0793201 0.270582
0.691724 0.0650389 0.278677
0.688019 0.0794124 0.277829
0.683943 0.0661485 0.270432
0.713228 0.0744184 0.268581
0.704902 0.0635584 0.277933
0.715972 0.0633936 0.267796
0.704817 0.0745999 0.26825
0.733113 0.0719907 0.271243
0.726232 0.066953 0.278029
0.721592 0.0766494 0.267034
0.738464 0.0645951 0.276616
0.742268 0.0726837 0.27795
0.749363 0.0742111 0.273378
0.752169 0.0780957 0.265022
0.758997 0.0663995 0.276339
0.761679 0.074403 0.275798
0.769493 0.0691899 0.26254
0.767393 0.0620635 0.263024
0.76257 0.0657748 0.265557
0.796123 0.068593 0.27079
0.787144 0.0727016 0.274165
0.792862 0.0721354 0.260722
0.789325 0.0704349 0.267641
0.816806 0.0604513 0.267223
0.814582 0.0665069 0.265078
0.813934 0.0637182 0.264535
0.801381 0.0689224 0.26781
0.821617 0.0673258 0.273741
0.834453 0.0689243 0.261893
0.831194 0.0787391 0.274061
0.824683 0.0690447 0.274032
0.841205 0.076065 0.277032
0.841859 0.0614607 0.276143
0.856199 0.0647218 0.268335
0.858073 0.0791923 0.263309
0.134295 0.0937222 0.274826
0.12762 0.0920866 0.279581
0.135275 0.084883 0.274687
0.121771 0.0820664 0.279671
0.142523 0.0836493 0.27925
0.146767 0.0853029 0.261075
0.149468 0.0905777 0.263237
0.141096 0.0985472 0.260971
0.16808 0.0912482 0.278398
0.16973 0.098302 0.270861
0.168376 0.0950817 0.272828
0.168486 0.0935043 0.27099
0.188701 0.0802682 0.266005
0.190514 0.0920176 0.273293
0.18807 0.0931879 0.277371
0.195155 0.0952603 0.275277
0.21518 0.0894028 0.273768
0.217107 0.0974671 0.263776
0.215775 0.0971336 0.275517
0.203088 0.0818774 0.26774
0.237851 0.0859967 0.264007
0.238346 0.0886615 0.264906
0.236457 0.0908268 0.26945
0.227527 0.0908713 0.263091
0.257268 0.0813042 0.274015
0.246454 0.0994265 0.276708
0.25272 0.0809592 0.276174
0.248235 0.0982197 0.278079
0.272583 0.0922244 0.274183
0.263566 0.088141 0.261338
0.260288 0.0919253 0.266573
0.26274 0.0953313 0.263712
0.284536 0.0937805 0.264858
0.298639 0.0878718 0.262081
0.288064 0.0995897 0.267801
0.280534 0.0880635 0.274154
0.304679 0.0861232 0.264976
0.315483 0.0828425 0.262494
0.310508 0.099336 0.266624
0.310823 0.0966749 0.279745
0.33093 0.0854727 0.276148
0.339483 0.0937331 0.265785
0.333694 0.0912607 0.271557
0.327022 0.0914014 0.272406
0.345653 0.0881538 0.27934
0.342254 0.0866327 0.261568
0.346079 0.0859345 0.274721
0.356765 0.0824573 0.26172
0.372169 0.0852515 0.274604
0.37601 0.0869254 0.263225
0.373277 0.0861597 0.269216
0.373032 0.0967964 0.264233
0.380333 0.0949697 0.264147
0.382572 0.0822617 0.279602
0.384869 0.0940212 0.264316
0.391392 0.0956698 0.260308
0.419549 0.0886768 0.262157
0.408528 0.0963705 0.267606
0.403775 0.0973496 0.26507
0.403126 0.0919071 0.276486
0.431632 0.0857244 0.276849
0.422489 0.0882493 0.261762
0.433204 0.0919704 0.269126
0.425405 0.0869254 0.276873
0.446614 0.096258 0.277858
0.451656 0.0965825 0.266974
0.440721 0.0836288 0.272329
0.453164 0.0958743 0.27851
0.471177 0.0963146 0.272317
0.473431 0.0909234 0.268184
0.473017 0.0887432 0.275341
0.475193 0.0835808 0.271358
0.482778 0.0816645 0.269276
0.486617 0.0991447 0.276267
0.493204 0.0892782 0.274808
0.495341 0.0857116 0.266617
0.504559 0.0841811 0.260961
0.504424 0.0874965 0.27332
0.504888 0.0982023 0.269032
0.513527 0.0871991 0.266799
0.534459 0.0855563 0.261117
0.523822 0.0857663 0.264837
0.536037 0.0963485 0.260868
0.52033 0.0873311 0.274879
0.550425 0.0942591 0.265068
0.544504 0.0895363 0.268583
0.553515 0.0981543 0.277001
0.557225 0.0880817 0.260901
0.577886 0.0872415 0.265193
0.56444 0.0949622 0.274305
0.570707 0.0927982 0.266177
0.562888 0.0813097 0.26904
0.597231 0.0905933 0.272952
0.589621 0.0805734 0.264793
0.583749 0.0905806 0.261804
0.592723 0.0895132 0.278921
0.606929 0.0910857 0.268151
0.602184 0.0880367 0.273445
0.608826 0.0933384 0.279579
0.619382 0.0935948 0.275083
0.634185 0.0824324 0.273103
0.635776 0.0812791 0.273085
0.627449 0.0954358 0.260866
0.636894 0.0815653 0.263295
0.655045 0.0847035 0.26975
0.657509 0.0863372 0.27566
0.644495 0.0806771 0.277051
0.642592 0.0983874 0.264438
0.663891 0.0919659 0.263825
0.671922 0.0825341 0.269489
0.665322 0.0808388 0.271388
0.675212 0.0972975 0.276553
0.688361 0.0819046 0.262466
0.693398 0.0890166 0.26261
0.690903 0.084841 0.261752
0.686104 0.0895498 0.273143
0.704293 0.0848483 0.275662
0.705669 0.0880547 0.267758
0.709464 0.0958392 0.278525
0.701389 0.0902966 0.266117
0.73749 0.0936987 0.263915
0.7392 0.0911281 0.266291
0.732934 0.0831167 0.266991
0.731655 0.0916694 0.262016
0.756748 0.0926986 0.268248
0.754369 0.0929519 0.273646
0.750793 0.094655 0.266269
0.751468 0.0911574 0.27687
0.770873 0.0902486 0.261782
0.765551 0.0847849 0.265584
0.761501 0.0840352 0.272469
0.779097 0.0917471 0.264002
0.780663 0.0919379 0.27433
0.794758 0.0813993 0.261282
0.784944 0.0851537 0.261698
0.781214 0.0955589 0.26524
0.811812 0.0873565 0.270204
0.813569 0.0983313 0.275698
0.811008 0.0853887 0.277991
0.808757 0.0843431 0.279118
0.832929 0.094768 0.260858
0.822144 0.0975596 0.270876
0.834471 0.0873554 0.269513
0.835858 0.0834557 0.263508
0.856087 0.0930599 0.264438
0.843552 0.0972237 0.276739
0.852073 0.0960955 0.274892
0.858443 0.0923023 0.265325
0.866713 0.0974443 0.266075
0.863002 0.0916878 0.268802
0.87892 0.0802833 0.271
0.86619 0.0924071 0.27862
0.11848 0.107774 0.275789
0.111932 0.11507 0.274931
0.104487 0.112659 0.271083
0.101218 0.112741 0.271409
0.133133 0.107831 0.265087
0.134317 0.101151 0.276398
0.135652 0.103639 0.275134
0.125494 0.105206 0.271487
0.142514 0.109445 0.265252
0.15452 0.116472 0.277147
0.158113 0.115759 0.266351
0.152141 0.11581 0.270205
0.177331 0.11627 0.276764
0.175532 0.106929 0.273821
0.169766 0.119068 0.268479
0.171478 0.108584 0.272151
0.185579 0.115075 0.260306
0.195881 0.117065 0.277832
0.191769 0.109637 0.269639
0.198726 0.112609 0.269104
0.203672 0.103651 0.279016
0.201134 0.102126 0.270821
0.21161 0.118376 0.260241
0.202856 0.116404 0.274983
0.233147 0.109317 0.279436
0.224805 0.11212 0.268764
0.239525 0.11855 0.269344
0.224745 0.114233 0.263082
0.258985 0.10083 0.267873
0.246713 0.112154 0.26117
0.248333 0.101635 0.270544
0.256237 0.105143 0.276008
0.270376 0.11394 0.266497
0.27542 0.103018 0.26066
0.272645 0.11888 0.262292
0.2611 0.11885 0.271181
0.297544 0.115453 0.27398
0.283278 0.11689 0.278343
0.281035 0.118247 0.279594
0.295712 0.104947 0.269241
0.305082 0.105095 0.262838
0.314946 0.11277 0.260619
0.316915 0.115783 0.2775
0.314475 0.105444 0.276716
0.323184 0.116034 0.263507
0.335615 0.115206 0.275972
0.336538 0.101798 0.269482
0.338552 0.105624 0.263538
0.355896 0.106337 0.261807
0.359158 0.111704 0.273916
0.344553 0.117392 0.27028
0.343964 0.114162 0.27078
0.375637 0.112458 0.272418
0.377087 0.118776 0.274767
0.373174 0.100272 0.277342
0.375799 0.117699 0.276032
0.3923 0.114279 0.262461
0.38663 0.10289 0.276204
0.381341 0.112 0.262769
0.391348 0.113157 0.272349
0.418605 0.104036 0.278902
0.415189 0.114917 0.278004
0.418042 0.10667 0.279184
0.413344 0.117544 0.276263
0.429288 0.107152 0.273202
0.437023 0.103201 0.268591
0.438438 0.113262 0.275234
0.42406 0.114943 0.267248
0.443036 0.108813 0.267252
0.459526 0.103595 0.272814
0.44596 0.10945 0.27201
0.453458 0.100905 0.276719
0.476698 0.105441 0.264948
0.466852 0.108213 0.275371
0.462537 0.108245 0.278118
0.47285 0.116486 0.278316
0.496376 0.105037 0.262682
0.480332 0.117952 0.262064
0.483718 0.107009 0.269151
0.491453 0.11909 0.269429
0.514872 0.105513 0.273243
0.500408 0.113404 0.265785
0.507961 0.104319 0.276928
0.513342 0.104796 0.278799
0.52555 0.114486 0.271241
0.527388 0.10594 0.276383
0.538207 0.10044 0.27139
0.537665 0.118073 0.271394
0.551335 0.102039 0.271839
0.544393 0.114883 0.265361
0.551179 0.106477 0.267397
0.541593 0.104369 0.263456
0.575632 0.103492 0.271679
0.577327 0.105621 0.272889
0.56587 0.105792 0.260666
0.57933 0.116509 0.264545
0.599694 0.114548 0.264131
0.58184 0.111773 0.274864
0.593494 0.11546 0.27374
0.595706 0.100589 0.275131
0.609688 0.113838 0.274553
0.605951 0.108856 0.273101
0.609504 0.113179 0.268495
0.602814 0.102442 0.260544
0.631236 0.107787 0.279222
0.620781 0.117747 0.278669
0.632637 0.11298 0.262647
0.620603 0.11719 0.271852
0.650221 0.105657 0.27924
0.65032 0.108153 0.267269
0.653506 0.113592 0.275503
0.659392 0.106562 0.261764
0.676667 0.112778 0.265244
0.663447 0.101651 0.266447
0.674951 0.11147 0.265263
0.665678 0.10597 0.260626
0.689205 0.115866 0.275116
0.68828 0.101354 0.267995
0.690453 0.10901 0.274023
0.69154 0.107758 0.263287
0.712224 0.117696 0.261196
0.71791 0.10347 0.26388
0.700969 0.119679 0.274226
0.705433 0.109327 0.271296
0.728772 0.113949 0.279373
0.727569 0.11596 0.26767
0.729062 0.115241 0.264668
0.738119 0.102097 0.268952
0.753966 0.118344 0.260821
0.756518 0.109313 0.260326
0.755981 0.100524 0.261567
0.758933 0.115462 0.266291
0.775503 0.106591 0.27726
0.764042 0.116894 0.273702
0.767279 0.110509 0.266632
0.76653 0.116587 0.27879
0.793092 0.105448 0.269304
0.796636 0.110534 0.26717
0.797168 0.103972 0.267666
0.780789 0.119384 0.271373
0.812217 0.102583 0.264448
0.817605 0.109734 0.276271
0.813535 0.103833 0.271618
0.805585 0.106469 0.277819
0.822893 0.112281 0.272376
0.824951 0.107611 0.276532
0.826266 0.102422 0.263231
0.831959 0.109307 0.277236
0.85612 0.101767 0.261672
0.857455 0.102414 0.272107
0.840813 0.101913 0.262064
0.857618 0.116902 0.276737
0.878558 0.108403 0.273865
0.876642 0.115671 0.264973
0.873626 0.115384 0.268525
0.879545 0.116925 0.266945
0.894639 0.114276 0.276642
0.899611 0.100609 0.268447
0.883862 0.104331 0.277663
0.887647 0.104244 0.271447
0.0930487 0.123668 0.260933
0.0983288 0.123379 0.269274
0.096247 0.132232 0.271868
0.095318 0.13205 0.261705
0.118008 0.124079 0.273307
0.108307 0.122912 0.273093
0.114411 0.124634 0.26933
0.104138 0.135768 0.270819
0.135509 0.132672 0.261972
0.132964 0.139279 0.277636
0.122286 0.121624 0.262583
0.135282 0.131368 0.271198
0.14861 0.134214 0.263638
0.141715 0.123983 0.2637
0.146055 0.121283 0.263583
0.151483 0.126716 0.260701
0.176097 0.136995 0.26097
0.175239 0.127392 0.278537
0.17528 0.133238 0.273271
0.160362 0.126279 0.277382
0.197603 0.123585 0.275668
0.190898 0.121405 0.26874
0.182378 0.128242 0.263592
0.18947 0.13235 0.274292
0.215513 0.133005 0.262212
0.213219 0.137362 0.276109
0.204396 0.124191 0.273006
0.213899 0.130991 0.275662
0.232734 0.137012 0.276223
0.235223 0.135621 0.276687
0.23186 0.122221 0.262108
0.236469 0.124125 0.271461
0.244888 0.134077 0.265101
0.256069 0.13692 0.27415
0.255417 0.134512 0.272794
0.244733 0.126056 0.274031
0.276842 0.138183 0.270326
0.272973 0.135429 0.274685
0.266679 0.123453 0.265986
0.27398 0.133876 0.269413
0.281266 0.128145 0.265513
0.284291 0.12523 0.271953
0.29876 0.131276 0.268709
0.297931 0.136995 0.261307
0.316986 0.128566 0.271772
0.301206 0.135851 0.265967
0.310342 0.120596 0.264673
0.307616 0.134301 0.265811
0.338376 0.137948 0.271864
0.326722 0.125489 0.272662
0.327842 0.12366 0.265739
0.32178 0.121066 0.267477
0.342594 0.136879 0.263054
0.352526 0.13909 0.26859
0.347517 0.129353 0.268526
0.356527 0.13642 0.268115
0.368521 0.126502 0.270314
0.362271 0.134248 0.278152
0.367389 0.129576 0.271914
0.376315 0.127489 0.267847
0.382898 0.126464 0.265395
0.391804 0.12541 0.274406
0.385757 0.136817 0.262462
0.391718 0.133262 0.27949
0.416576 0.125948 0.262718
0.412576 0.134162 0.277867
0.40754 0.136402 0.267633
0.411767 0.124778 0.276167
0.423511 0.137282 0.269732
0.436824 0.121784 0.268683
0.435795 0.139528 0.265441
0.432856 0.135276 0.275583
0.45026 0.131374 0.260456
0.455285 0.126206 0.260697
0.457855 0.129648 0.271525
0.453344 0.121638 0.265957
0.474038 0.120796 0.271705
0.473263 0.126606 0.279579
0.477605 0.124007 0.263315
0.472235 0.139668 0.272986
0.493848 0.137666 0.263795
0.494372 0.125951 0.269637
0.498682 0.136126 0.275373
0.493596 0.129376 0.262654
0.514599 0.122121 0.267776
0.511764 0.12818 0.275803
0.504677 0.13357 0.267706
0.510826 0.1256 0.266959
0.533061 0.130279 0.266115
0.533564 0.120233 0.266074
0.523604 0.137859 0.277258
0.529706 0.127171 0.271858
0.559615 0.137757 0.267284
0.552877 0.137844 0.263498
0.559497 0.125724 0.271443
0.552531 0.136145 0.267965
0.561039 0.12033 0.269694
0.572349 0.13118 0.276221
0.569736 0.134591 0.260698
0.575851 0.126177 0.277272
0.586823 0.122566 0.265024
0.592923 0.135959 0.265302
0.595257 0.134453 0.272629
0.582235 0.138367 0.277002
0.617302 0.132901 0.260925
0.610688 0.134922 0.260213
0.607706 0.135983 0.262573
0.616219 0.12949 0.268016
0.624497 0.12291 0.271374
0.629176 0.135141 0.261166
0.626542 0.122471 0.274547
0.622359 0.130243 0.26302
0.644394 0.123961 0.271334
0.659308 0.126323 0.265881
0.653974 0.137526 0.260642
0.658195 0.130622 0.27318
0.668162 0.129759 0.269054
0.67697 0.128686 0.279526
0.663792 0.124672 0.266534
0.678223 0.12188 0.266178
0.68654 0.138087 0.278544
0.693713 0.125722 0.269405
0.6832 0.133163 0.26432
0.6844 0.125914 0.270903
0.701583 0.127833 0.26841
0.702298 0.128417 0.273855
0.708958 0.124869 0.26269
0.708725 0.134096 0.262503
0.738173 0.133162 0.276242
0.727458 0.124615 0.267441
0.723838 0.127222 0.278815
0.721617 0.127582 0.264995
0.750952 0.136608 0.260546
0.753057 0.12695 0.279066
0.740729 0.129427 0.263654
0.743255 0.132144 0.27552
0.764789 0.128487 0.268577
0.761283 0.123817 0.272031
0.77307 0.139182 0.279371
0.778987 0.130222 0.276426
0.783591 0.137341 0.279585
0.784994 0.133459 0.261581
0.781348 0.122931 0.279519
0.788589 0.127132 0.264986
0.802018 0.123935 0.271557
0.801051 0.127868 0.276292
0.806616 0.125582 0.274821
0.802274 0.135339 0.261051
0.825067 0.125452 0.264658
0.829223 0.138918 0.260211
0.828975 0.132297 0.271772
0.822956 0.121857 0.277139
0.851557 0.137349 0.267299
0.853841 0.127416 0.276154
0.846596 0.123063 0.276606
0.841456 0.135983 0.265497
0.86577 0.121382 0.275878
0.879436 0.125037 0.276177
0.864578 0.137498 0.27266
0.870996 0.124566 0.268712
0.89782 0.12715 0.270756
0.894973 0.135199 0.267326
0.881988 0.130361 0.270775
0.8882 0.13349 0.276877
0.908992 0.127308 0.263894
0.912054 0.130614 0.261251
0.911874 0.120625 0.271616
0.900758 0.13962 0.276517
0.0834437 0.1415 0.279586
0.0928312 0.14161 0.276777
0.0991735 0.157739 0.266031
0.0944155 0.143755 0.278746
0.119287 0.150441 0.267453
0.101888 0.151115 0.264891
0.111055 0.143036 0.260416
0.103467 0.140949 0.276426
0.136442 0.150735 0.27962
0.139115 0.153838 0.278013
0.139392 0.15058 0.261636
0.127736 0.145467 0.266821
0.14035 0.15387 0.272553
0.154769 0.149225 0.277316
0.142892 0.142818 0.277911
0.152834 0.154174 0.264237
0.171647 0.156262 0.264145
0.166899 0.147625 0.278445
0.16241 0.142726 0.279623
0.174791 0.145318 0.278821
0.190282 0.154279 0.270901
0.185114 0.142377 0.271939
0.182051 0.150603 0.274656
0.199409 0.146437 0.264879
0.207575 0.140253 0.273273
0.212614 0.158145 0.264944
0.201254 0.156194 0.264502
0.217562 0.148139 0.27542
0.236446 0.153799 0.278975
0.225619 0.155537 0.268601
0.222356 0.143866 0.274064
0.234861 0.141774 0.272029
0.25177 0.14868 0.277989
0.247347 0.155813 0.260769
0.250851 0.147871 0.269792
0.253716 0.147192 0.264426
0.278329 0.142457 0.266999
0.2773 0.15455 0.26361
0.273304 0.151151 0.275063
0.2767 0.150947 0.277529
0.288474 0.151588 0.278501
0.291113 0.158912 0.263373
0.284933 0.142044 0.275819
0.287317 0.156855 0.278192
0.300519 0.149465 0.262084
0.310769 0.143665 0.263337
0.308897 0.148052 0.261871
0.307176 0.15668 0.276452
0.325227 0.149251 0.265338
0.330648 0.142786 0.275304
0.332895 0.156069 0.266685
0.331578 0.153801 0.274418
0.359545 0.157185 0.263872
0.345787 0.146287 0.263503
0.344746 0.158648 0.266167
0.35863 0.141815 0.273614
0.362027 0.159292 0.264603
0.368031 0.159296 0.274107
0.377541 0.14385 0.262429
0.365862 0.151251 0.261851
0.39823 0.158608 0.261924
0.39868 0.150772 0.269484
0.382473 0.143799 0.27862
0.393156 0.156291 0.27218
0.410398 0.159449 0.278935
0.40718 0.142775 0.264149
0.418698 0.146215 0.260483
0.402949 0.148013 0.264266
0.427631 0.144196 0.26673
0.437196 0.146812 0.271046
0.436784 0.156929 0.274797
0.433712 0.144314 0.271424
0.457754 0.153084 0.272184
0.452727 0.148163 0.274128
0.45653 0.147975 0.261504
0.457144 0.140368 0.263149
0.475631 0.151959 0.27868
0.460855 0.148375 0.268831
0.460892 0.15699 0.266175
0.475311 0.155658 0.265377
0.48602 0.152956 0.264496
0.497195 0.157286 0.270419
0.484562 0.158783 0.272172
0.486177 0.153264 0.266391
0.511009 0.148528 0.271922
0.516406 0.151926 0.277924
0.51199 0.158406 0.266076
0.508762 0.14579 0.275289
0.53109 0.149756 0.268218
0.535225 0.143174 0.275781
0.533365 0.154668 0.272814
0.52873 0.154704 0.265539
0.557338 0.157776 0.264941
0.545591 0.153191 0.270622
0.547067 0.145077 0.274518
0.559098 0.150919 0.265571
0.578509 0.155201 0.263042
0.567009 0.142411 0.27114
0.572541 0.147414 0.265042
0.565399 0.144076 0.279039
0.594504 0.154852 0.26826
0.580455 0.151415 0.276475
0.598429 0.149753 0.270831
0.583174 0.145695 0.277836
0.602977 0.159182 0.274248
0.607816 0.152286 0.265774
0.613804 0.153268 0.276357
0.617373 0.155246 0.268846
0.631145 0.141 0.263613
0.623439 0.158442 0.275593
0.628628 0.14676 0.275684
0.629469 0.148346 0.272953
0.658503 0.147823 0.264769
0.647129 0.149796 0.272934
0.64179 0.142009 0.261747
0.651338 0.15794 0.26195
0.660661 0.157402 0.2761
0.677767 0.146155 0.275758
0.671753 0.157545 0.276257
0.675682 0.158288 0.273478
0.688803 0.157641 0.263184
0.685429 0.155737 0.279098
0.689393 0.152366 0.266267
0.687265 0.151824 0.270894
0.719044 0.15447 0.272
0.708539 0.144764 0.260832
0.703492 0.154306 0.275996
0.7156 0.146808 0.262592
0.738865 0.159081 0.26679
0.737192 0.154108 0.264215
0.730655 0.158598 0.279321
0.737952 0.1529 0.262394
0.756653 0.154819 0.279318
0.756231 0.148782 0.260942
0.7598 0.158893 0.275363
0.758846 0.14069 0.277027
0.771344 0.146321 0.271046
0.765353 0.141942 0.26943
0.77666 0.154023 0.269352
0.773362 0.142395 0.271488
0.783967 0.141077 0.275669
0.792529 0.153892 0.267328
0.797318 0.154031 0.279773
0.792437 0.155155 0.272805
0.813493 0.151769 0.279326
0.812385 0.158918 0.273557
0.803189 0.141454 0.262329
0.800947 0.144556 0.261836
0.823117 0.143228 0.273734
0.824759 0.142899 0.279069
0.834374 0.156975 0.260829
0.828264 0.158119 0.264754
0.858168 0.151373 0.271427
0.845612 0.154942 0.271543
0.850429 0.157905 0.272234
0.846255 0.149582 0.277567
0.876126 0.152533 0.276618
0.879273 0.140546 0.267054
0.877322 0.158752 0.261855
0.864646 0.155802 0.278627
0.881001 0.140667 0.264835
0.891848 0.151896 0.262647
0.88595 0.152343 0.268529
0.890523 0.145985 0.26329
0.913235 0.144144 0.276524
0.905985 0.145029 0.261993
0.914002 0.156823 0.267141
0.900347 0.155647 0.276202
0.0867521 0.175357 0.266321
0.0951126 0.177583 0.268495
0.0854264 0.163969 0.27301
0.098686 0.168132 0.261195
0.112295 0.177747 0.260235
0.109154 0.161552 0.273007
0.11486 0.174845 0.277269
0.108795 0.164477 0.260696
0.138037 0.162709 0.261714
0.136489 0.163431 0.279289
0.12601 0.175678 0.273407
0.127868 0.168015 0.268755
0.155335 0.163298 0.268954
0.142551 0.161071 0.265806
0.159119 0.178764 0.271787
0.146852 0.170608 0.279591
0.165126 0.179604 0.266089
0.161366 0.165844 0.26172
0.161457 0.172016 0.265168
0.168534 0.172493 0.27498
0.181794 0.172736 0.279066
0.192077 0.160961 0.269258
0.189658 0.179201 0.26652
0.188958 0.160356 0.277306
0.207025 0.164864 0.275032
0.212816 0.161544 0.260446
0.216751 0.170249 0.26424
0.202443 0.169641 0.273508
0.221861 0.176681 0.265183
0.22582 0.165296 0.263003
0.223057 0.178297 0.266916
0.233892 0.167719 0.267041
0.253245 0.164788 0.268737
0.241181 0.174545 0.277399
0.256854 0.179005 0.277712
0.247601 0.171859 0.275144
0.269174 0.179423 0.27547
0.269671 0.177046 0.26796
0.279398 0.162119 0.263536
0.275101 0.178774 0.261389
0.281391 0.166177 0.275536
0.28325 0.16322 0.275868
0.285158 0.166184 0.266723
0.286215 0.175297 0.271619
0.300917 0.161965 0.266901
0.30704 0.162946 0.274392
0.316597 0.170999 0.276086
0.30673 0.163874 0.267117
0.332394 0.172801 0.260693
0.332583 0.171401 0.276761
0.322908 0.166986 0.274351
0.322178 0.171332 0.275032
0.342461 0.177067 0.268222
0.345409 0.165147 0.273165
0.358416 0.168959 0.261152
0.340724 0.160685 0.264059
0.376659 0.165961 0.261565
0.368072 0.170389 0.2788
0.366491 0.162342 0.267485
0.379285 0.171625 0.274458
0.385458 0.177948 0.276697
0.387615 0.173203 0.26083
0.384326 0.17871 0.277869
0.392775 0.174315 0.260247
0.419038 0.162929 0.262391
0.403749 0.162044 0.271318
0.400333 0.16524 0.279069
0.40278 0.162382 0.271475
0.428295 0.167304 0.264465
0.430735 0.171993 0.264344
0.427219 0.171448 0.270291
0.423014 0.171677 0.276387
0.45021 0.164685 0.260911
0.453247 0.174461 0.264325
0.458904 0.167404 0.274012
0.4428 0.168061 0.271091
0.47719 0.179327 0.27645
0.47831 0.168847 0.274191
0.462898 0.176525 0.262094
0.463511 0.176982 0.276611
0.487328 0.176183 0.264749
0.480736 0.165808 0.261488
0.486753 0.160307 0.275063
0.491031 0.161666 0.279546
0.519279 0.169751 0.274023
0.511624 0.168866 0.270558
0.519567 0.164771 0.277842
0.517198 0.173676 0.27098
0.522312 0.164066 0.267665
0.534314 0.162867 0.278254
0.532969 0.174922 0.266925
0.525549 0.169269 0.26672
0.558144 0.166268 0.275795
0.545864 0.177738 0.263388
0.543813 0.164243 0.268494
0.541545 0.179486 0.277109
0.573344 0.177694 0.267158
0.572365 0.163243 0.26934
0.562345 0.160439 0.267984
0.575985 0.169225 0.27251
0.583311 0.170237 0.266091
0.586212 0.161101 0.276726
0.592955 0.169237 0.273947
0.588573 0.164767 0.275694
0.611078 0.171562 0.270757
0.617571 0.164508 0.273345
0.618294 0.176689 0.264361
0.602445 0.165437 0.277691
0.637444 0.169485 0.27154
0.627648 0.165502 0.264451
0.631302 0.164755 0.279624
0.639567 0.166158 0.261737
0.654646 0.170272 0.264003
0.645471 0.164981 0.275103
0.658273 0.176008 0.273462
0.640556 0.165199 0.274535
0.673856 0.162932 0.279484
0.671763 0.166559 0.262013
0.664931 0.166757 0.276757
0.6764 0.167182 0.279271
0.682776 0.173139 0.261991
0.694235 0.16428 0.276919
0.695304 0.165942 0.268137
0.687527 0.166069 0.266381
0.708727 0.174389 0.267516
0.70164 0.178113 0.26668
0.70148 0.161931 0.275586
0.707415 0.177632 0.264241
0.73746 0.167538 0.268974
0.73972 0.17566 0.270225
0.72877 0.172422 0.271466
0.729543 0.16046 0.277274
0.757452 0.161962 0.264912
0.748601 0.175585 0.269466
0.74838 0.172072 0.279619
0.759398 0.168312 0.26375
0.769383 0.175042 0.262793
0.779552 0.173312 0.27959
0.777754 0.165076 0.270228
0.771729 0.169742 0.266954
0.790574 0.162682 0.264599
0.785318 0.167718 0.272231
0.781013 0.163583 0.267512
0.787616 0.176023 0.262456
0.80275 0.161963 0.268638
0.811101 0.172798 0.266012
0.809114 0.171259 0.278145
0.816816 0.171363 0.264315
0.831285 0.163043 0.271314
0.836352 0.165143 0.260291
0.832967 0.17048 0.272295
0.824327 0.175441 0.279235
0.840973 0.16362 0.279133
0.853285 0.164568 0.269484
0.841679 0.164623 0.268239
0.852194 0.176826 0.274105
0.868489 0.167357 0.268634
0.866821 0.175389 0.262751
0.874425 0.167679 0.277964
0.864017 0.167718 0.26408
0.893094 0.176931 0.270638
0.886279 0.160614 0.265235
0.895136 0.16724 0.267317
0.888678 0.171733 0.278965
0.916963 0.163102 0.27399
0.902438 0.160679 0.271137
0.901458 0.172244 0.265145
0.908156 0.168385 0.274576
0.220425 0.0261271 0.285434
0.233465 0.0252316 0.284994
0.228702 0.0366713 0.28026
0.234741 0.0223795 0.283502
0.241599 0.0232364 0.298971
0.241407 0.0331431 0.281884
0.259341 0.0257265 0.291796
0.256345 0.0355314 0.299123
0.26973 0.0309527 0.285869
0.267635 0.0314336 0.289475
0.273186 0.0236981 0.284496
0.274373 0.0313018 0.293569
0.294215 0.0307125 0.282919
0.29773 0.026478 0.287758
0.295866 0.0217087 0.280647
0.280475 0.0251453 0.291819
0.312122 0.0362574 0.280801
0.308574 0.033803 0.282015
0.311338 0.0293085 0.288636
0.302639 0.0217027 0.283467
0.329281 0.0284321 0.287523
0.330603 0.0244428 0.295424
0.321176 0.0356432 0.28516
0.320887 0.0239635 0.298528
0.359777 0.0334578 0.292648
0.342522 0.0352973 0.285092
0.340224 0.0295273 0.299278
0.357195 0.0289368 0.299173
0.363238 0.0230802 0.298038
0.374019 0.0283897 0.280341
0.367603 0.0274117 0.281218
0.373898 0.0303807 0.290949
0.382419 0.0257784 0.282959
0.396827 0.0373119 0.2882
0.383021 0.0366458 0.286214
0.397065 0.0214292 0.283635
0.41786 0.0230667 0.292638
0.402312 0.0308568 0.283207
0.410782 0.0365112 0.292109
0.415312 0.0235367 0.292437
0.43243 0.0212636 0.284585
0.431138 0.0225447 0.288039
0.438142 0.0385358 0.292262
0.428974 0.0247796 0.285176
0.442107 0.0338197 0.287495
0.455521 0.0294512 0.285614
0.440571 0.0367811 0.291549
0.448446 0.0310649 0.29069
0.465821 0.0304765 0.2861
0.479069 0.0325491 0.292923
0.464788 0.0285159 0.294053
0.464602 0.0306849 0.291585
0.485039 0.0378538 0.292187
0.497394 0.0284835 0.281438
0.491102 0.032573 0.283075
0.491595 0.0223519 0.296051
0.509523 0.0291637 0.29067
0.515743 0.0234166 0.281358
0.517513 0.0279715 0.283195
0.515631 0.0334167 0.294319
0.52032 0.0248148 0.295561
0.520683 0.0323933 0.295229
