ply
format ascii 1.0
element vertex 1951
property float x
property float y
property float z
end_header
1.09355 0.533374 2.78022
1.0667 0.589012 2.77669
1.08825 0.579789 2.748
1.11341 0.559039 2.70424
1.14095 0.525197 2.70925
1.11923 0.584621 2.7783
1.13339 0.513488 2.73593
1.16536 0.503791 2.72561
1.13493 0.542668 2.7736
1.29195 0.58231 2.732
1.23295 0.589646 2.79644
1.27718 0.505817 2.71754
1.2947 0.510431 2.78174
1.21644 0.583422 2.7841
1.23754 0.591701 2.74541
1.35171 0.516458 2.73571
1.34829 0.529302 2.70487
1.39766 0.586214 2.72481
1.34629 0.51458 2.79145
1.30314 0.509861 2.79199
1.34215 0.51106 2.79769
1.4247 0.59083 2.71209
1.4046 0.585919 2.71056
1.46806 0.534247 2.75565
1.41033 0.569886 2.78611
1.43168 0.527007 2.77473
1.4633 0.54274 2.77272
1.5056 0.556644 2.7633
1.50192 0.590316 2.70979
1.57993 0.558087 2.73891
1.50957 0.575709 2.72238
1.58092 0.569654 2.7074
1.5849 0.591545 2.77093
1.64869 0.503617 2.79236
1.61567 0.551014 2.78866
1.67299 0.546127 2.76743
1.65428 0.507095 2.73574
1.6532 0.508212 2.77925
1.62032 0.541504 2.77036
1.74767 0.585471 2.70174
1.71574 0.536109 2.71871
1.7734 0.551183 2.76559
1.79447 0.516222 2.71559
1.77038 0.588017 2.74893
1.73898 0.5765 2.79256
1.876 0.524834 2.74465
1.80896 0.520929 2.78921
1.84474 0.573957 2.73382
1.86386 0.538792 2.78494
1.86218 0.517654 2.72933
1.85308 0.527361 2.7445
1.9725 0.561054 2.75617
1.92296 0.581537 2.73936
1.90605 0.545447 2.78958
1.93252 0.571079 2.70153
1.91228 0.570821 2.75477
1.99034 0.592051 2.75132
2.06413 0.589902 2.76745
2.0743 0.524056 2.79425
2.01925 0.511769 2.78214
2.02895 0.541673 2.78368
2.02342 0.518679 2.71829
2.00618 0.512871 2.78401
2.14213 0.574061 2.73564
2.18541 0.572214 2.78836
2.16488 0.537018 2.74488
2.14161 0.594674 2.73618
2.11868 0.542981 2.78655
2.1104 0.544973 2.79233
2.28328 0.595976 2.79847
2.20933 0.535917 2.77957
2.25434 0.558082 2.77052
2.23877 0.581808 2.79585
2.28416 0.58845 2.78694
2.21015 0.520905 2.70205
2.36601 0.50853 2.73558
2.38311 0.514325 2.74224
2.31279 0.552064 2.70471
2.36688 0.585346 2.73342
2.36195 0.59275 2.76227
2.37986 0.50494 2.70938
2.46852 0.532082 2.79686
2.46075 0.504424 2.7537
2.49415 0.580103 2.7717
2.42222 0.565936 2.78598
2.40806 0.596728 2.74341
2.456 0.520781 2.72854
2.51384 0.574428 2.77057
2.50635 0.51234 2.73159
2.50541 0.592274 2.73252
2.55389 0.58934 2.7436
2.53841 0.594395 2.70352
2.55409 0.587856 2.7521
2.69608 0.547292 2.75718
2.62536 0.551708 2.76682
2.68743 0.587696 2.77517
2.62128 0.548025 2.77579
2.69692 0.512542 2.73366
2.61854 0.515679 2.77763
2.75779 0.585169 2.78132
2.73085 0.568222 2.73906
2.75521 0.522162 2.71595
2.78081 0.55509 2.74108
2.75508 0.507082 2.7028
2.79267 0.578894 2.78239
2.86592 0.537047 2.78982
2.88046 0.59179 2.72339
2.83295 0.555964 2.7172
2.86461 0.55953 2.73782
2.88134 0.52713 2.70476
2.87469 0.551204 2.79098
2.95561 0.530935 2.76262
2.92868 0.559636 2.78647
2.97155 0.592949 2.79861
2.93371 0.595083 2.73471
2.94783 0.527556 2.77851
2.93728 0.583829 2.76169
3.07401 0.509421 2.70724
3.0804 0.521519 2.78489
3.07124 0.590716 2.71274
3.08081 0.55839 2.77898
3.01091 0.58444 2.72355
3.06481 0.533567 2.78138
0.483287 0.605059 2.7726
0.430882 0.659402 2.72977
0.453953 0.63506 2.71771
0.460115 0.689318 2.74179
0.429119 0.604723 2.70635
0.424798 0.671683 2.74802
0.588196 0.670037 2.75607
0.569314 0.64034 2.76768
0.563789 0.632449 2.77762
0.570764 0.698702 2.77666
0.501053 0.681651 2.77638
0.546527 0.604486 2.7516
0.665974 0.690504 2.77224
0.684419 0.698698 2.71874
0.631395 0.667508 2.75552
0.632689 0.685983 2.72659
0.688434 0.647941 2.77321
0.610569 0.691545 2.76714
0.75399 0.680369 2.73279
0.778229 0.670221 2.76547
0.774956 0.684996 2.74836
0.760034 0.676135 2.77393
0.771079 0.630864 2.70353
0.755598 0.630279 2.71115
0.882169 0.661075 2.73927
0.878086 0.66946 2.76588
0.852196 0.629545 2.71211
0.832156 0.627906 2.71039
0.856983 0.6898 2.73971
0.897462 0.635499 2.7158
0.901258 0.661651 2.74043
0.993196 0.688927 2.76194
0.914377 0.698949 2.78172
0.971827 0.68469 2.78012
0.905701 0.642877 2.75892
0.942815 0.6295 2.78964
1.07936 0.6092 2.77097
1.03523 0.61027 2.72074
1.08717 0.66258 2.71352
1.08417 0.612917 2.75457
1.00101 0.652673 2.7353
1.09237 0.611192 2.71724
1.19566 0.624334 2.75537
1.11234 0.617632 2.76573
1.1843 0.63286 2.73361
1.10962 0.692774 2.72317
1.17971 0.620584 2.72775
1.19412 0.639033 2.7052
1.23902 0.655613 2.77917
1.27054 0.674195 2.75824
1.28647 0.626437 2.77525
1.22508 0.629669 2.71671
1.26976 0.64212 2.70337
1.23102 0.686801 2.74529
1.32077 0.609323 2.7306
1.38509 0.619106 2.77609
1.36293 0.651156 2.71618
1.33248 0.641029 2.76114
1.33607 0.622225 2.76627
1.38676 0.667544 2.76927
1.45163 0.698761 2.739
1.48024 0.695698 2.75794
1.47862 0.686159 2.78211
1.45898 0.66992 2.71942
1.4406 0.631007 2.7797
1.46198 0.642601 2.75358
1.56414 0.648634 2.78741
1.59442 0.663558 2.73137
1.59638 0.687212 2.71269
1.55777 0.667052 2.77727
1.57538 0.667421 2.78566
1.51141 0.653722 2.71731
1.6119 0.68476 2.72938
1.64099 0.670337 2.75761
1.69219 0.694135 2.74466
1.69154 0.660403 2.71478
1.61597 0.678783 2.76209
1.61766 0.642626 2.78921
1.77691 0.658529 2.78431
1.76939 0.61119 2.7619
1.71914 0.696091 2.72555
1.78114 0.606226 2.75946
1.78586 0.688392 2.73475
1.78327 0.614174 2.75847
1.8687 0.603968 2.79518
1.82076 0.633202 2.78734
1.84772 0.673617 2.73284
1.82758 0.681762 2.70432
1.87717 0.641411 2.72003
1.85286 0.691452 2.79344
1.97011 0.655366 2.72742
1.90253 0.620054 2.77728
1.92296 0.61848 2.78693
1.97477 0.606234 2.75372
1.90177 0.631396 2.76782
1.99551 0.683483 2.75702
2.05191 0.696242 2.70515
2.04152 0.655207 2.71919
2.02289 0.610962 2.72784
2.03363 0.643798 2.71436
2.08003 0.697363 2.74544
2.0907 0.676291 2.71325
2.1216 0.64608 2.79683
2.19461 0.610632 2.75965
2.13739 0.619659 2.73496
2.17675 0.611732 2.71842
2.15222 0.660608 2.71217
2.11388 0.697657 2.70351
2.20416 0.624511 2.71884
2.23189 0.660788 2.72517
2.24013 0.636542 2.74514
2.2551 0.675289 2.7347
2.27212 0.687057 2.78227
2.26766 0.661012 2.77279
2.3514 0.651515 2.70351
2.3352 0.62412 2.75535
2.34641 0.679348 2.70548
2.33846 0.692637 2.72529
2.37262 0.684839 2.75111
2.31927 0.672984 2.74241
2.41058 0.678087 2.70523
2.40979 0.662119 2.77382
2.45692 0.636917 2.71166
2.46469 0.681177 2.74894
2.46319 0.622092 2.76942
2.43364 0.693357 2.72432
2.55471 0.618748 2.76489
2.5084 0.640588 2.73515
2.53799 0.611832 2.71446
2.56048 0.637138 2.77162
2.57783 0.613411 2.74764
2.54014 0.652138 2.7058
2.62124 0.658279 2.77284
2.66756 0.628988 2.7739
2.68926 0.692006 2.72487
2.62728 0.658049 2.70589
2.64196 0.614522 2.7966
2.60979 0.648229 2.79136
2.73155 0.609471 2.71377
2.77775 0.680213 2.78303
2.76763 0.604779 2.79791
2.72752 0.685071 2.72615
2.71887 0.688352 2.72187
2.7679 0.676551 2.77231
2.89583 0.63869 2.71011
2.88363 0.663541 2.78473
2.80753 0.638535 2.71685
2.8134 0.615678 2.74543
2.88048 0.69664 2.71271
2.84633 0.689296 2.7283
2.93476 0.65697 2.78599
2.9634 0.611815 2.79399
2.94315 0.66087 2.71457
2.90626 0.630981 2.79609
2.94006 0.684634 2.71396
2.99117 0.658759 2.70112
3.03514 0.605263 2.7638
3.05605 0.657651 2.79639
3.06671 0.619554 2.74775
3.04359 0.665588 2.79871
3.08831 0.629712 2.7359
3.0104 0.656381 2.79321
0.467712 0.78035 2.71519
0.475337 0.768354 2.78007
0.411333 0.701555 2.72673
0.462292 0.770714 2.75831
0.490322 0.702869 2.73965
0.42358 0.736463 2.79792
0.502474 0.728997 2.70514
0.57178 0.761293 2.78386
0.565058 0.702058 2.78706
0.55667 0.727008 2.71208
0.581323 0.76434 2.70132
0.565152 0.7925 2.75312
0.692414 0.735436 2.71319
0.680654 0.702367 2.72248
0.641321 0.785502 2.70354
0.635592 0.716721 2.70932
0.648691 0.712921 2.73258
0.628086 0.718156 2.74776
0.73844 0.711795 2.7616
0.753752 0.739289 2.79626
0.77436 0.797213 2.72999
0.75551 0.78658 2.70334
0.71554 0.779288 2.79168
0.727018 0.741034 2.76759
0.868819 0.736045 2.73476
0.819806 0.728764 2.74186
0.80539 0.738898 2.72458
0.888496 0.761364 2.74086
0.881359 0.709898 2.79283
0.816505 0.718429 2.72481
0.902098 0.790348 2.70962
0.943217 0.709659 2.73319
0.953997 0.794695 2.7278
0.924056 0.744121 2.77298
0.906436 0.717834 2.79842
0.947522 0.762613 2.78244
1.09272 0.76431 2.70245
1.03823 0.743843 2.78116
1.02081 0.745587 2.79722
1.08931 0.716144 2.72979
1.09152 0.767789 2.73723
1.01485 0.755393 2.72509
1.1154 0.787022 2.70144
1.16474 0.773827 2.70207
1.19331 0.796523 2.72108
1.1567 0.789869 2.7365
1.10738 0.702139 2.70239
1.109 0.770275 2.79827
1.2763 0.774444 2.76496
1.26827 0.723022 2.75192
1.28652 0.775752 2.77193
1.2856 0.794817 2.7683
1.22036 0.707753 2.72057
1.2926 0.727193 2.79292
1.35921 0.752723 2.71919
1.3567 0.732974 2.70616
1.34489 0.727878 2.73359
1.34684 0.714711 2.76285
1.39412 0.742332 2.76153
1.33088 0.725284 2.76438
1.42294 0.718891 2.7189
1.41934 0.759093 2.76874
1.44225 0.77625 2.73375
1.44151 0.755689 2.78592
1.48408 0.796966 2.7595
1.45666 0.763331 2.79608
1.5213 0.789606 2.72054
1.53697 0.797455 2.77573
1.56694 0.732833 2.72074
1.56344 0.705268 2.72777
1.56115 0.794094 2.73399
1.5444 0.787574 2.7839
1.61411 0.766774 2.77512
1.66434 0.758538 2.71835
1.67564 0.714378 2.78381
1.63085 0.797088 2.79446
1.68002 0.797014 2.78838
1.6926 0.764723 2.70511
1.76665 0.792129 2.71569
1.75183 0.764272 2.72355
1.7914 0.798074 2.73007
1.75998 0.724053 2.72069
1.78985 0.774638 2.73578
1.79303 0.744428 2.78145
1.88106 0.78088 2.76219
1.82806 0.726872 2.70368
1.84435 0.728991 2.79394
1.84687 0.79169 2.77695
1.80533 0.734546 2.78137
1.89158 0.725764 2.76263
1.9815 0.724968 2.72841
1.92592 0.734907 2.71527
1.9191 0.739024 2.72492
1.95435 0.78541 2.71256
1.97935 0.722673 2.75695
1.90484 0.757245 2.74566
2.03468 0.76755 2.76004
2.0832 0.772971 2.78507
2.07673 0.720874 2.72024
2.01072 0.730791 2.79739
2.00133 0.721098 2.70102
2.01982 0.793874 2.73411
2.1294 0.713786 2.76488
2.14892 0.717569 2.79188
2.18959 0.705274 2.73141
2.13667 0.707381 2.77901
2.15985 0.776672 2.7523
2.19701 0.70172 2.79305
2.21382 0.752934 2.7273
2.26178 0.782144 2.76134
2.21523 0.737574 2.71498
2.28005 0.7792 2.77284
2.28411 0.703666 2.76853
2.20333 0.704652 2.75546
2.32314 0.742253 2.7887
2.3422 0.706634 2.7637
2.31724 0.724377 2.72644
2.32176 0.728207 2.78064
2.35732 0.788368 2.77465
2.32323 0.748713 2.74435
2.41966 0.756496 2.76834
2.44276 0.743997 2.78553
2.42977 0.754417 2.76441
2.45154 0.72312 2.70101
2.43875 0.706572 2.78918
2.42525 0.761602 2.73384
2.50667 0.714876 2.79118
2.57588 0.708241 2.71327
2.50587 0.713649 2.73174
2.54204 0.719428 2.76854
2.54541 0.736646 2.75172
2.511 0.796029 2.7588
2.65228 0.75913 2.742
2.6095 0.717352 2.75846
2.674 0.778413 2.70729
2.61415 0.753521 2.7399
2.67215 0.748678 2.77001
2.62318 0.713854 2.7101
2.77558 0.790259 2.76132
2.76219 0.735402 2.72855
2.72964 0.712486 2.71978
2.78644 0.741179 2.70661
2.71015 0.707467 2.72102
2.76208 0.778013 2.70652
2.89238 0.702879 2.79724
2.88334 0.751514 2.73922
2.86195 0.790422 2.77564
2.84554 0.752189 2.76418
2.8883 0.797597 2.79342
2.81236 0.710401 2.72081
2.99541 0.781393 2.78482
2.93333 0.775729 2.79135
2.90312 0.727883 2.76397
2.96472 0.793598 2.73767
2.99739 0.757606 2.78463
2.90157 0.791229 2.74073
3.0314 0.75527 2.73993
3.03851 0.78487 2.75803
3.05264 0.778997 2.78674
3.06979 0.79475 2.71341
3.07126 0.722608 2.73178
3.03338 0.758521 2.7986
0.403205 0.80706 2.77706
0.404345 0.836648 2.72706
0.487495 0.89889 2.75135
0.467442 0.857283 2.72338
0.43583 0.889958 2.72864
0.415313 0.810778 2.70133
0.568477 0.868563 2.79778
0.59131 0.890436 2.78559
0.520433 0.897779 2.70416
0.590159 0.856875 2.75531
0.503692 0.871665 2.79027
0.532435 0.814681 2.79254
0.688183 0.828027 2.73497
0.644032 0.808155 2.74128
0.664236 0.803407 2.71104
0.633332 0.862524 2.70352
0.687122 0.862146 2.76037
0.680512 0.886522 2.76615
0.757247 0.848139 2.71052
0.723209 0.808399 2.7672
0.705603 0.855732 2.78328
0.794231 0.819819 2.70648
0.778256 0.826473 2.73745
0.775777 0.890804 2.72719
0.820498 0.859959 2.71097
0.83601 0.847943 2.7015
0.872484 0.813067 2.79454
0.889737 0.805062 2.75592
0.818657 0.880118 2.74834
0.816563 0.888798 2.77126
0.968304 0.834504 2.78698
0.942672 0.893475 2.72234
0.947096 0.860584 2.78755
0.978499 0.81207 2.77761
0.905601 0.839008 2.7052
0.914253 0.83428 2.77105
1.07754 0.857193 2.73741
1.03577 0.803599 2.76578
1.03979 0.811798 2.7438
1.09 0.827209 2.76427
1.00577 0.859831 2.76373
1.06438 0.803758 2.73348
1.19707 0.898487 2.75606
1.14844 0.820373 2.7371
1.16603 0.893512 2.76906
1.13555 0.873253 2.74132
1.10564 0.842442 2.77213
1.18719 0.809551 2.77062
1.28717 0.893705 2.72143
1.20523 0.864792 2.75426
1.22993 0.814053 2.70881
1.20842 0.894973 2.7718
1.2719 0.807103 2.71302
1.28012 0.838364 2.7378
1.34336 0.854221 2.71546
1.3281 0.830406 2.76852
1.34141 0.834786 2.70742
1.32646 0.87216 2.70189
1.30828 0.830989 2.76956
1.35916 0.808923 2.73191
1.44226 0.846344 2.79577
1.48978 0.877992 2.75563
1.49431 0.842023 2.70494
1.49649 0.811255 2.79807
1.48732 0.81948 2.78567
1.47784 0.844078 2.73275
1.56548 0.864673 2.71493
1.56157 0.848074 2.78266
1.57543 0.864085 2.73043
1.56116 0.830958 2.76766
1.58079 0.888999 2.7232
1.54752 0.822443 2.72904
1.64827 0.843086 2.77766
1.62766 0.874197 2.76345
1.65368 0.846509 2.73034
1.68335 0.862395 2.72011
1.64879 0.815491 2.71347
1.66438 0.843124 2.72886
1.79499 0.804901 2.72879
1.75393 0.88982 2.78376
1.76545 0.891636 2.74499
1.7897 0.832205 2.77687
1.75964 0.827828 2.73967
1.7303 0.858085 2.73702
1.82159 0.855949 2.77225
1.87877 0.813466 2.77569
1.89065 0.852663 2.71086
1.81098 0.830967 2.76154
1.89212 0.821811 2.72643
1.87039 0.813423 2.76418
1.9873 0.86529 2.7226
1.98137 0.830021 2.78051
1.98189 0.805434 2.71932
1.92956 0.869431 2.71397
1.94682 0.888543 2.71835
1.99402 0.841317 2.79782
2.09339 0.864996 2.78795
2.02306 0.835503 2.78808
2.01553 0.875318 2.70318
2.05241 0.817949 2.74495
2.08562 0.869879 2.76315
2.04493 0.865215 2.74892
2.12085 0.821167 2.75164
2.14279 0.845075 2.75194
2.14352 0.878931 2.78563
2.17318 0.852339 2.72603
2.11411 0.874298 2.75894
2.13201 0.857766 2.77071
2.20856 0.896436 2.74113
2.20272 0.868596 2.70374
2.2897 0.884478 2.78055
2.28456 0.831561 2.7425
2.21687 0.888612 2.72792
2.23414 0.836134 2.7964
2.30721 0.894363 2.73708
2.32923 0.845492 2.7981
2.38114 0.854126 2.78439
2.31068 0.840617 2.7619
2.32377 0.834354 2.76561
2.35863 0.845675 2.70151
2.44117 0.868995 2.76741
2.48103 0.893762 2.7644
2.41477 0.825461 2.70779
2.41018 0.869653 2.78816
2.42688 0.856624 2.71811
2.44127 0.895974 2.76689
2.53906 0.825468 2.79868
2.50656 0.860512 2.74479
2.56859 0.834322 2.7072
2.54565 0.848975 2.79769
2.50127 0.816107 2.76945
2.51702 0.837696 2.73212
2.66391 0.896462 2.74629
2.66129 0.838367 2.75802
2.65502 0.822488 2.71585
2.62431 0.828265 2.74876
2.60763 0.876853 2.78861
2.64817 0.821123 2.73124
2.78288 0.869669 2.75685
2.71527 0.844429 2.74299
2.78401 0.862483 2.7968
2.77089 0.830628 2.71263
2.70718 0.818411 2.77331
2.71924 0.84566 2.72914
2.83461 0.80349 2.73253
2.88873 0.895211 2.73717
2.82902 0.832518 2.7418
2.81229 0.872168 2.79258
2.81816 0.807511 2.78776
2.8713 0.867373 2.75679
2.9361 0.829628 2.74487
2.90118 0.809146 2.79865
2.96326 0.875877 2.74514
2.94774 0.870805 2.70567
2.95915 0.8407 2.71508
2.93549 0.820375 2.7396
3.07874 0.839851 2.74522
3.04272 0.858759 2.78853
3.02053 0.844715 2.76407
3.01301 0.848124 2.79819
3.02964 0.860796 2.76083
3.02435 0.806085 2.79883
0.457555 0.95259 2.79134
0.401805 0.902583 2.72572
0.443618 0.92183 2.78183
0.455022 0.920436 2.79882
0.448446 0.917854 2.71937
0.444795 0.914916 2.7248
0.520298 0.994884 2.76884
0.565251 0.933004 2.71622
0.53966 0.939167 2.71002
0.555565 0.947665 2.72801
0.506792 0.979353 2.75847
0.525287 0.931993 2.79712
0.640294 0.994225 2.72446
0.634587 0.912959 2.73698
0.64349 0.970684 2.74098
0.633049 0.930923 2.79113
0.605136 0.909106 2.73703
0.605568 0.936425 2.70977
0.769928 0.925018 2.73461
0.709967 0.941469 2.71405
0.783373 0.980291 2.7351
0.766206 0.924277 2.73342
0.769652 0.918532 2.74325
0.794836 0.910738 2.70216
0.892401 0.93081 2.72237
0.875049 0.987661 2.75901
0.841275 0.918282 2.70875
0.822577 0.904205 2.70965
0.811482 0.99442 2.771
0.876428 0.953167 2.73363
0.933129 0.986957 2.78536
0.934088 0.953142 2.71609
0.943554 0.992994 2.73096
0.925519 0.941285 2.78342
0.915918 0.980666 2.78274
0.937126 0.92401 2.78723
1.04709 0.970374 2.7846
1.09389 0.963372 2.73169
1.04249 0.973577 2.70721
1.07445 0.953143 2.71671
1.04496 0.926333 2.72631
1.03104 0.953317 2.7981
1.10366 0.913454 2.79389
1.13487 0.966891 2.74883
1.12965 0.961743 2.76826
1.11753 0.931361 2.78955
1.10171 0.926636 2.79081
1.12371 0.978764 2.76299
1.24022 0.907841 2.72042
1.29133 0.974289 2.75645
1.22023 0.911212 2.71208
1.23401 0.908189 2.71477
1.22917 0.976353 2.78738
1.21395 0.926891 2.72336
1.37546 0.989269 2.77417
1.34795 0.973562 2.71393
1.34804 0.977072 2.73246
1.31036 0.90143 2.7893
1.31508 0.935746 2.76241
1.38902 0.977027 2.70154
1.48619 0.948693 2.79172
1.48733 0.9282 2.76193
1.48613 0.974889 2.75712
1.42506 0.946 2.7724
1.48056 0.920211 2.75224
1.48408 0.905078 2.74242
1.52979 0.984169 2.78092
1.59237 0.956239 2.77276
1.52811 0.90405 2.77904
1.52567 0.902577 2.74285
1.55148 0.977071 2.73841
1.52694 0.919526 2.70231
1.64662 0.908194 2.7137
1.64577 0.916865 2.76381
1.65891 0.911563 2.76201
1.61974 0.956572 2.7315
1.67169 0.905841 2.76532
1.62414 0.937188 2.78597
1.78566 0.976978 2.70473
1.70476 0.962505 2.75877
1.77392 0.948507 2.7709
1.75265 0.953208 2.75786
1.71328 0.968215 2.71306
1.75152 0.993949 2.7513
1.84287 0.90196 2.74706
1.85544 0.930487 2.74107
1.82864 0.963733 2.77087
1.80998 0.981331 2.74464
1.85314 0.920606 2.76584
1.8668 0.901556 2.728
1.93018 0.984861 2.73793
1.99309 0.916365 2.71921
1.98981 0.962603 2.71108
1.92755 0.996931 2.721
1.98483 0.945604 2.76987
1.96819 0.993061 2.77312
2.05681 0.9466 2.78174
2.02015 0.96114 2.75495
2.0097 0.929887 2.72883
2.02194 0.992945 2.72802
2.02398 0.9086 2.72114
2.08976 0.941342 2.74543
2.15348 0.92963 2.79277
2.17504 0.954089 2.75979
2.17923 0.915602 2.71185
2.14543 0.914999 2.78516
2.10793 0.907519 2.79312
2.16137 0.980737 2.76751
2.21505 0.970941 2.70178
2.20112 0.909375 2.74157
2.21512 0.9242 2.71518
2.2615 0.970347 2.70601
2.22872 0.925211 2.78318
2.28595 0.945075 2.77745
2.38421 0.953489 2.79799
2.30523 0.927736 2.75426
2.32294 0.987419 2.73363
2.30748 0.953784 2.756
2.38126 0.964219 2.79616
2.37915 0.976064 2.79007
2.43596 0.992517 2.70872
2.45773 0.923312 2.72311
2.4733 0.99214 2.78614
2.4039 0.930014 2.74286
2.49242 0.984523 2.77611
2.44736 0.960552 2.73541
2.52867 0.931481 2.70554
2.54172 0.905846 2.70303
2.57784 0.908671 2.79234
2.50789 0.956842 2.72252
2.52466 0.937692 2.78754
2.55872 0.931842 2.74178
2.61138 0.907049 2.76724
2.60558 0.973581 2.75239
2.66113 0.994418 2.72102
2.68328 0.916211 2.70395
2.6574 0.940266 2.718
2.69821 0.96004 2.71412
2.75897 0.943881 2.78346
2.71646 0.979565 2.73166
2.71801 0.958231 2.74856
2.73161 0.926305 2.71618
2.74706 0.961775 2.7613
2.73191 0.954179 2.70655
2.8082 0.94548 2.70126
2.81302 0.991726 2.70999
2.8983 0.901017 2.77902
2.82337 0.91571 2.78512
2.81607 0.901819 2.76076
2.89191 0.981381 2.71633
2.96813 0.980593 2.77329
2.97297 0.943045 2.76519
2.95851 0.996153 2.7818
2.90799 0.926049 2.73213
2.95633 0.948936 2.71877
2.93391 0.934304 2.76046
3.05511 0.952092 2.70894
3.02056 0.998491 2.75363
3.06312 0.992478 2.74554
3.03052 0.902398 2.74717
3.03595 0.924164 2.71028
3.09413 0.945215 2.75769
0.471536 1.02146 2.7464
0.469437 1.07655 2.77432
0.467725 1.07001 2.72824
0.430094 1.03258 2.77103
0.461342 1.08148 2.7657
0.47819 1.00401 2.74041
0.529113 1.09859 2.7888
0.530355 1.00896 2.7664
0.513295 1.06257 2.74793
0.575844 1.00645 2.76575
0.591309 1.08593 2.70443
0.531932 1.06949 2.77528
0.612791 1.09331 2.786
0.623628 1.03374 2.75349
0.671215 1.08299 2.72891
0.606413 1.07715 2.73658
0.610327 1.05282 2.76133
0.617039 1.00162 2.79824
0.764907 1.08855 2.76068
0.757434 1.04144 2.70909
0.74395 1.02624 2.73932
0.713668 1.01687 2.78977
0.734555 1.0583 2.75267
0.767401 1.08276 2.74586
0.855287 1.07312 2.78086
0.806684 1.01575 2.74856
0.897469 1.01345 2.767
0.813234 1.07754 2.7823
0.862886 1.03687 2.74366
0.845661 1.03421 2.73374
0.969573 1.00441 2.78687
0.932057 1.04081 2.75521
0.952071 1.09697 2.71897
0.955991 1.02913 2.78952
0.947623 1.08301 2.76801
0.940454 1.07552 2.72243
1.07536 1.02274 2.76753
1.01228 1.08808 2.74444
1.01855 1.00245 2.70986
1.00383 1.0407 2.74455
1.03334 1.0552 2.70386
1.06518 1.08436 2.78302
1.19754 1.00794 2.74376
1.16349 1.03911 2.72673
1.18778 1.05854 2.75132
1.13466 1.07239 2.73286
1.19098 1.09035 2.70417
1.18763 1.0125 2.71065
1.2876 1.02715 2.74859
1.23954 1.09143 2.7012
1.24059 1.07253 2.7068
1.22684 1.05331 2.77067
1.22613 1.02433 2.75753
1.2488 1.03585 2.7666
1.37144 1.01163 2.70977
1.36014 1.03905 2.74756
1.32471 1.07269 2.71669
1.36807 1.02866 2.74319
1.33846 1.01787 2.77478
1.30379 1.05927 2.77941
1.48493 1.07465 2.75211
1.44294 1.08333 2.70871
1.47071 1.06275 2.79769
1.48761 1.03106 2.79223
1.41223 1.04846 2.76289
1.49528 1.06766 2.75783
1.59313 1.02351 2.79201
1.5769 1.05443 2.79222
1.50129 1.04881 2.73966
1.54165 1.07689 2.72366
1.527 1.02388 2.71303
1.52403 1.04709 2.75535
1.67218 1.00363 2.77842
1.6545 1.03644 2.77943
1.68368 1.04315 2.79703
1.68857 1.03621 2.7115
1.63323 1.09754 2.75818
1.62574 1.07677 2.75471
1.72776 1.01756 2.73793
1.72622 1.00694 2.72972
1.79804 1.07913 2.74314
1.73377 1.01492 2.77911
1.7681 1.01722 2.74703
1.70712 1.07878 2.77646
1.86874 1.06951 2.76208
1.82738 1.05304 2.76318
1.82068 1.08091 2.77847
1.81339 1.05102 2.73449
1.80825 1.0027 2.79854
1.86459 1.06425 2.73546
1.94091 1.07334 2.74544
1.96934 1.07605 2.7643
1.90109 1.01909 2.7341
1.92765 1.03242 2.78045
1.97868 1.0978 2.72458
1.97961 1.01887 2.704
2.03841 1.07957 2.77706
2.03588 1.05389 2.73013
2.09219 1.09654 2.78866
2.08529 1.03685 2.78639
2.06546 1.08994 2.76967
2.0633 1.07499 2.71089
2.10856 1.03345 2.72668
2.19514 1.03372 2.79664
2.13658 1.08402 2.79071
2.15355 1.03116 2.76772
2.10475 1.09732 2.7762
2.14794 1.08547 2.76658
2.26602 1.02743 2.76855
2.24052 1.04053 2.76058
2.28526 1.03722 2.73005
2.29169 1.03854 2.70461
2.23271 1.03286 2.75941
2.26683 1.06884 2.72189
2.38795 1.09476 2.72981
2.32764 1.08478 2.73596
2.35956 1.07922 2.7264
2.31136 1.08881 2.72774
2.31668 1.01884 2.72506
2.39306 1.04083 2.70176
2.4139 1.00416 2.74149
2.44434 1.07563 2.71701
2.40369 1.09543 2.79146
2.45799 1.09487 2.76174
2.44153 1.06583 2.79055
2.40698 1.02556 2.77913
2.54403 1.02549 2.74275
2.51665 1.09792 2.78918
2.54195 1.09715 2.76414
2.59651 1.06875 2.70119
2.51725 1.08332 2.74449
2.57416 1.00846 2.7338
2.657 1.06177 2.79729
2.61395 1.08509 2.73538
2.6954 1.02058 2.77545
2.61566 1.0723 2.74067
2.62917 1.07095 2.70588
2.65331 1.01284 2.70733
2.72962 1.02824 2.72509
2.71907 1.03003 2.72959
2.77645 1.09545 2.71498
2.7878 1.08536 2.73933
2.75146 1.02171 2.71919
2.76781 1.05647 2.79312
2.82003 1.00602 2.79145
2.88496 1.04223 2.75202
2.87875 1.09227 2.71939
2.87545 1.01623 2.79494
2.85949 1.07684 2.76741
2.8103 1.08082 2.77473
2.96097 1.05393 2.71061
2.94198 1.01372 2.74525
2.99274 1.04526 2.72204
2.92693 1.00692 2.72484
2.99154 1.00946 2.77401
2.94371 1.03619 2.75899
3.08136 1.04809 2.75268
3.02236 1.0109 2.79593
3.02449 1.01871 2.70601
3.0962 1.05401 2.77663
3.06982 1.00369 2.77449
3.0227 1.07399 2.70499
0.421148 1.10107 2.79713
0.482979 1.1045 2.71227
0.40622 1.13117 2.72992
0.482306 1.19562 2.77316
0.448693 1.10913 2.75777
0.435263 1.18397 2.70669
0.543262 1.16909 2.71803
0.56779 1.10333 2.79634
0.543041 1.19261 2.70246
0.593069 1.15941 2.76552
0.543398 1.16925 2.74826
0.541207 1.19315 2.72608
0.60571 1.18463 2.73929
0.634987 1.17806 2.70151
0.614211 1.14399 2.77485
0.648768 1.10276 2.77665
0.616119 1.13183 2.79188
0.698906 1.16224 2.74791
0.756625 1.1702 2.71082
0.784487 1.18054 2.72447
0.779322 1.14742 2.77801
0.715805 1.19839 2.73023
0.747398 1.18575 2.75834
0.777049 1.15108 2.78354
0.821649 1.16809 2.70422
0.868102 1.14656 2.74424
0.855448 1.11084 2.79033
0.833297 1.10402 2.71695
0.853724 1.19613 2.72
0.820276 1.12846 2.78187
0.913589 1.19031 2.76278
0.943121 1.19405 2.72384
0.965017 1.15924 2.70196
0.995075 1.11123 2.77128
0.98404 1.18013 2.74324
0.912208 1.1845 2.72702
1.07136 1.14317 2.73447
1.02352 1.11368 2.74226
1.07511 1.19674 2.73479
1.04186 1.19427 2.77182
1.06668 1.13144 2.78373
1.007 1.13181 2.73287
1.19131 1.11135 2.77349
1.18633 1.19382 2.77653
1.12914 1.1617 2.71853
1.10695 1.146 2.74688
1.12219 1.12867 2.7413
1.10739 1.14524 2.75724
1.24252 1.17257 2.76486
1.23872 1.16599 2.7572
1.24058 1.12931 2.77688
1.22543 1.17042 2.79573
1.21008 1.12214 2.76305
1.20536 1.10881 2.76069
1.34759 1.14736 2.78146
1.39141 1.13901 2.77095
1.37456 1.11291 2.70714
1.30334 1.11977 2.76897
1.35281 1.13472 2.71927
1.3177 1.16305 2.78951
1.40894 1.11265 2.79683
1.45289 1.16872 2.76324
1.43909 1.17161 2.71479
1.43741 1.17339 2.7221
1.44602 1.1222 2.76512
1.46955 1.12072 2.77539
1.52132 1.11201 2.70773
1.52734 1.18463 2.7394
1.59541 1.12905 2.71534
1.504 1.14809 2.7178
1.5252 1.15797 2.73757
1.57399 1.15135 2.71378
1.62847 1.14388 2.78442
1.62481 1.10662 2.70105
1.66452 1.17384 2.72139
1.67036 1.11159 2.7255
1.60341 1.1636 2.73206
1.69781 1.12205 2.74455
1.75884 1.11421 2.73329
1.76057 1.15781 2.77893
1.76278 1.1512 2.72391
1.75736 1.17877 2.79759
1.72224 1.1474 2.78065
1.75303 1.11101 2.77174
1.84643 1.18101 2.76067
1.86753 1.16207 2.70218
1.80681 1.13283 2.71817
1.82513 1.12045 2.75489
1.83717 1.11001 2.71944
1.80833 1.17618 2.79056
1.95579 1.1309 2.75274
1.931 1.16094 2.76405
1.98881 1.10657 2.75841
1.98223 1.11247 2.72245
1.96614 1.17436 2.79665
1.95444 1.15309 2.7132
2.00589 1.13996 2.7879
2.0426 1.19689 2.77501
2.07667 1.18115 2.79005
2.00252 1.11611 2.71253
2.02861 1.17712 2.7968
2.07319 1.18205 2.76055
2.16405 1.16814 2.71742
2.16253 1.17801 2.7238
2.10703 1.10856 2.7393
2.10935 1.14425 2.70938
2.10449 1.15515 2.78849
2.1815 1.13596 2.72364
2.24434 1.1466 2.76362
2.25521 1.18111 2.73908
2.24046 1.16651 2.77488
2.20141 1.15991 2.74132
2.2603 1.17931 2.79076
2.25963 1.16096 2.75818
2.31998 1.18224 2.78365
2.31777 1.12217 2.79339
2.36301 1.12931 2.7219
2.34463 1.1305 2.79089
2.37068 1.13451 2.72139
2.34109 1.17365 2.73958
2.44121 1.16547 2.78255
2.44517 1.17479 2.7236
2.47662 1.19623 2.75633
2.45385 1.18278 2.77087
2.41131 1.12639 2.78554
2.40298 1.13229 2.72309
2.59584 1.17156 2.76613
2.52869 1.17714 2.73886
2.5031 1.11559 2.71615
2.53961 1.1035 2.71405
2.55698 1.10836 2.77911
2.51516 1.10384 2.76414
2.66312 1.12548 2.7288
2.63225 1.19796 2.7871
2.69122 1.1519 2.79
2.63924 1.1899 2.77832
2.69421 1.18385 2.78754
2.68922 1.13384 2.78715
2.73718 1.19045 2.74573
2.78579 1.15828 2.72808
2.77667 1.18536 2.793
2.75535 1.17115 2.77237
2.75318 1.18141 2.77839
2.75441 1.13708 2.70734
2.83966 1.11416 2.75313
2.87363 1.19241 2.79561
2.81965 1.11646 2.74283
2.81438 1.10781 2.75487
2.85188 1.10366 2.77235
2.82666 1.13681 2.71115
2.92244 1.14437 2.7775
2.91904 1.12617 2.78738
2.97205 1.18399 2.74871
2.92718 1.15824 2.78626
2.91866 1.19492 2.76423
2.95703 1.13174 2.73686
3.08937 1.17952 2.73834
3.03788 1.19813 2.7138
3.02138 1.18525 2.75171
3.08933 1.12879 2.74056
3.06835 1.181 2.76747
3.04392 1.18958 2.72411
0.482587 1.22652 2.76642
0.459811 1.21499 2.7316
0.489152 1.24164 2.74413
0.446316 1.20484 2.70285
0.469069 1.22113 2.79137
0.417372 1.24344 2.77484
0.535252 1.20253 2.74177
0.51236 1.26741 2.74723
0.533171 1.22787 2.76592
0.58536 1.22043 2.72284
0.580176 1.21659 2.79539
0.568734 1.24683 2.78543
0.671446 1.25618 2.7329
0.647896 1.25747 2.73893
0.619556 1.23279 2.73399
0.691195 1.21757 2.76556
0.674722 1.27951 2.71716
0.674752 1.27311 2.7178
0.733468 1.26367 2.7042
0.765731 1.29791 2.76217
0.754412 1.2815 2.76743
0.744616 1.21888 2.72837
0.790184 1.27631 2.74259
0.720736 1.28563 2.71597
0.848899 1.22089 2.73924
0.837528 1.25925 2.79794
0.886322 1.26923 2.79194
0.86497 1.28767 2.73756
0.801669 1.2185 2.73706
0.84418 1.26286 2.72822
0.916759 1.26517 2.76063
0.937383 1.2337 2.78506
0.906484 1.26646 2.78821
0.925932 1.20404 2.76339
0.985115 1.28692 2.74121
0.921302 1.22971 2.74791
1.08151 1.27071 2.76512
1.0413 1.22874 2.76461
1.03262 1.24307 2.76716
1.07293 1.20343 2.71384
1.03425 1.2832 2.72491
1.02654 1.20153 2.77132
1.17389 1.21533 2.75278
1.1067 1.24408 2.72361
1.10938 1.25989 2.7814
1.16581 1.2108 2.73105
1.10837 1.25236 2.72562
1.1567 1.2163 2.71276
1.23045 1.25929 2.711
1.25733 1.27352 2.74231
1.26062 1.23241 2.77997
1.24007 1.24106 2.73901
1.24281 1.2514 2.7512
1.27396 1.23854 2.75258
1.30385 1.2518 2.76775
1.39788 1.23069 2.76544
1.39432 1.24616 2.75691
1.39285 1.21321 2.76184
1.36516 1.28929 2.73478
1.34716 1.23333 2.76578
1.40833 1.28244 2.70373
1.45979 1.23202 2.7888
1.45337 1.20918 2.73613
1.44755 1.279 2.79493
1.43827 1.27981 2.77881
1.47608 1.21377 2.78836
1.53574 1.25667 2.75904
1.55552 1.2866 2.74588
1.50965 1.22736 2.76163
1.55969 1.2254 2.79309
1.5084 1.2742 2.74872
1.53963 1.24225 2.77005
1.64584 1.26162 2.72514
1.64725 1.28863 2.77179
1.61664 1.24124 2.77687
1.6419 1.23832 2.75905
1.60523 1.28552 2.77094
1.68056 1.27193 2.7984
1.79393 1.22133 2.70377
1.73098 1.22326 2.75854
1.75917 1.24777 2.76966
1.73994 1.27556 2.73445
1.75339 1.24734 2.73885
1.72781 1.23185 2.73805
1.86243 1.22882 2.71803
1.81826 1.26795 2.79325
1.86826 1.25741 2.7416
1.84793 1.23893 2.78964
1.81767 1.27188 2.70827
1.81005 1.20213 2.72539
1.96613 1.29134 2.79865
1.90764 1.26353 2.73523
1.9318 1.28749 2.79777
1.9253 1.23954 2.78428
1.94386 1.29312 2.77158
1.92553 1.26309 2.70151
2.00744 1.27167 2.73896
2.07091 1.26331 2.77172
2.06444 1.27079 2.79743
2.06515 1.21016 2.755
2.04167 1.28158 2.72412
2.03734 1.23181 2.71309
2.13631 1.29759 2.7717
2.16994 1.29527 2.77989
2.19875 1.21976 2.73153
2.19528 1.2308 2.72488
2.1528 1.27332 2.79061
2.15976 1.28224 2.75506
2.23035 1.26354 2.76089
2.21833 1.25413 2.75294
2.22544 1.26181 2.7601
2.24833 1.20845 2.74838
2.22312 1.24803 2.74415
2.23361 1.2177 2.74139
2.36333 1.26268 2.74039
2.30198 1.22491 2.74577
2.30308 1.25425 2.78305
2.36639 1.2315 2.76797
2.3516 1.20254 2.79859
2.32614 1.25207 2.76094
2.49626 1.26811 2.73543
2.40889 1.29831 2.72859
2.43855 1.29462 2.75352
2.47893 1.27594 2.78175
2.49433 1.29861 2.71184
2.40589 1.26997 2.71169
2.57631 1.28303 2.7887
2.58108 1.256 2.72695
2.57283 1.23347 2.73361
2.55429 1.27996 2.72106
2.55308 1.20981 2.75633
2.5884 1.22797 2.77203
2.65767 1.2133 2.74612
2.63017 1.22648 2.72039
2.67533 1.20519 2.74773
2.69543 1.24479 2.73594
2.68755 1.23805 2.75987
2.6988 1.28818 2.7298
2.77377 1.2076 2.74574
2.77535 1.22158 2.74878
2.79836 1.24003 2.75438
2.77928 1.27398 2.73259
2.73673 1.25759 2.7635
2.70659 1.24678 2.78817
2.87544 1.21838 2.72845
2.89723 1.20467 2.76544
2.8653 1.21961 2.71294
2.81788 1.2989 2.75421
2.8724 1.29711 2.73261
2.80646 1.28167 2.72309
2.94306 1.23166 2.76729
2.92688 1.29157 2.76494
2.96331 1.20528 2.73142
2.96792 1.20886 2.71156
2.90799 1.2512 2.74577
2.90781 1.25625 2.76573
3.09184 1.24565 2.7719
3.08555 1.2246 2.7796
3.07218 1.27421 2.71527
3.00686 1.20883 2.71746
3.05681 1.21332 2.74269
3.05574 1.27237 2.73338
0.410166 1.38732 2.74127
0.4903 1.38215 2.743
0.472979 1.31935 2.75322
0.427397 1.38065 2.70646
0.483344 1.31583 2.7126
0.4048 1.36483 2.70925
0.542725 1.33362 2.71822
0.535327 1.38874 2.74484
0.575421 1.31645 2.702
0.584689 1.34496 2.77856
0.587 1.37305 2.70439
0.542577 1.38305 2.71633
0.690791 1.39616 2.7859
0.638576 1.34556 2.76758
0.64046 1.38785 2.79681
0.645641 1.36034 2.73079
0.618612 1.31778 2.74768
0.608385 1.3026 2.70558
0.786563 1.36536 2.78455
0.720825 1.36484 2.79028
0.71974 1.37665 2.74056
0.704956 1.35719 2.70462
0.746308 1.34232 2.75947
0.705732 1.36376 2.73399
0.897836 1.35601 2.74764
0.844631 1.35392 2.76113
0.882019 1.35118 2.72895
0.851887 1.34518 2.78486
0.848461 1.37401 2.71051
0.866753 1.38385 2.73114
0.96034 1.31846 2.79345
0.986615 1.36408 2.71108
0.932722 1.30237 2.76027
0.937368 1.39321 2.71768
0.980707 1.31985 2.73712
0.902607 1.36481 2.74735
1.07374 1.3639 2.7905
1.02277 1.35912 2.71769
1.09801 1.33912 2.78521
1.00116 1.30216 2.73479
1.04028 1.30676 2.77389
1.06546 1.32897 2.77395
1.14075 1.3259 2.7186
1.18819 1.3164 2.71056
1.12225 1.33364 2.74771
1.1267 1.33019 2.78523
1.12085 1.36378 2.74225
1.19622 1.31519 2.76269
1.28295 1.37553 2.7258
1.24426 1.3724 2.76644
1.27272 1.37443 2.70687
1.28843 1.34805 2.70234
1.20207 1.33026 2.73186
1.27178 1.37089 2.7677
1.34736 1.30702 2.72336
1.39782 1.31753 2.75502
1.36425 1.35768 2.77453
1.32229 1.39787 2.74107
1.37633 1.31625 2.70504
1.37991 1.3808 2.76169
1.49812 1.32901 2.77231
1.467 1.32138 2.71703
1.4084 1.34334 2.76671
1.42052 1.37288 2.72606
1.47165 1.38024 2.79036
1.43542 1.33494 2.71646
1.56505 1.37622 2.78559
1.56665 1.38265 2.78434
1.53279 1.32214 2.73646
1.51666 1.37434 2.73987
1.53727 1.35516 2.75755
1.57861 1.33465 2.75186
1.61414 1.39634 2.72737
1.62468 1.39718 2.73969
1.62537 1.30104 2.79067
1.67566 1.34813 2.75893
1.67169 1.36859 2.72766
1.60388 1.37571 2.70793
1.73617 1.37435 2.76035
1.74339 1.37547 2.79226
1.79001 1.36217 2.7783
1.72285 1.37516 2.78593
1.72072 1.38942 2.76271
1.71849 1.32083 2.70963
1.82373 1.37427 2.78739
1.88538 1.32312 2.7719
1.85992 1.3343 2.75466
1.81998 1.30239 2.71425
1.84813 1.35653 2.77907
1.87229 1.38263 2.71141
1.93171 1.3275 2.79213
1.91677 1.30539 2.73118
1.96794 1.34831 2.75505
1.95165 1.3449 2.7145
1.92703 1.36175 2.77507
1.9154 1.3448 2.72927
2.08327 1.30227 2.75258
2.08498 1.31095 2.7834
2.0514 1.35636 2.7399
2.05551 1.334 2.77993
2.02604 1.3371 2.73766
2.07172 1.36907 2.765
2.11156 1.38801 2.77552
2.14224 1.36641 2.72644
2.13917 1.31695 2.74458
2.16015 1.31316 2.71017
2.1169 1.32585 2.79817
2.13384 1.38475 2.73127
2.23918 1.33772 2.72576
2.20526 1.30542 2.76617
2.28017 1.30942 2.77067
2.27053 1.33187 2.70731
2.23093 1.31851 2.78163
2.21376 1.34337 2.75215
2.33668 1.37177 2.75321
2.38693 1.39356 2.77599
2.31179 1.3685 2.77043
2.33428 1.36431 2.70672
2.31073 1.38746 2.75523
2.372 1.3919 2.77783
2.44802 1.37227 2.77572
2.42085 1.32151 2.77368
2.45157 1.3238 2.7383
2.43594 1.33017 2.74624
2.46059 1.39112 2.77213
2.43142 1.3353 2.71543
2.58045 1.38559 2.79599
2.51075 1.36726 2.75253
2.57415 1.35244 2.74472
2.57463 1.30171 2.774
2.59122 1.37075 2.78757
2.58606 1.33113 2.7574
2.69692 1.33603 2.74519
2.68359 1.3936 2.77609
2.69339 1.38826 2.73877
2.60594 1.34381 2.72064
2.67204 1.32939 2.72762
2.67706 1.36268 2.79818
2.79466 1.38113 2.77278
2.74591 1.33622 2.71365
2.77291 1.30501 2.74536
2.72901 1.3854 2.76041
2.72065 1.31509 2.76002
2.72787 1.33823 2.77389
2.86453 1.31871 2.78281
2.88761 1.39627 2.71545
2.88305 1.33995 2.78858
2.81913 1.32713 2.78369
2.84159 1.34161 2.76816
2.83326 1.38527 2.75261
2.96515 1.3168 2.76813
2.95405 1.37744 2.74874
2.9167 1.36921 2.77935
2.92096 1.37421 2.79433
2.91949 1.3195 2.77969
2.95356 1.3471 2.79228
3.0342 1.37297 2.78257
3.04019 1.31593 2.71629
3.02373 1.38607 2.77774
3.08315 1.3116 2.71292
3.0677 1.3108 2.70568
3.0448 1.36081 2.72472
0.488697 0.497429 2.87621
0.416995 0.411524 2.89808
0.444934 0.429644 2.8079
0.470461 0.491453 2.83348
0.422242 0.419229 2.88708
0.485776 0.495454 2.83058
0.564382 0.498359 2.83797
0.547668 0.402937 2.81174
0.51566 0.462334 2.86003
0.53216 0.44236 2.88044
0.532696 0.438331 2.88894
0.539405 0.401962 2.89381
0.607181 0.495384 2.80366
0.624074 0.414678 2.8218
0.691611 0.425786 2.83136
0.60953 0.455188 2.88529
0.692924 0.414764 2.83087
0.698589 0.402391 2.82837
0.739098 0.465649 2.87464
0.793617 0.444525 2.85737
0.762212 0.438333 2.87064
0.748275 0.467749 2.86029
0.73556 0.492382 2.86692
0.75807 0.410565 2.88081
0.820042 0.493531 2.88791
0.88162 0.491538 2.87684
0.803467 0.419566 2.8959
0.817106 0.483365 2.82624
0.888962 0.429858 2.80177
0.823066 0.406919 2.82979
0.915663 0.404561 2.87106
0.988008 0.438613 2.84227
0.980868 0.474456 2.82243
0.902068 0.414591 2.81094
0.992551 0.441436 2.8551
0.957101 0.476691 2.89451
1.08214 0.43478 2.89173
1.0428 0.446335 2.84762
1.08334 0.417562 2.85542
1.02324 0.468567 2.85474
1.0892 0.436018 2.87942
1.07389 0.464588 2.89323
1.1207 0.426475 2.81692
1.19141 0.470954 2.86663
1.1355 0.488338 2.83373
1.10334 0.467388 2.88403
1.14871 0.427793 2.89615
1.15668 0.401139 2.81603
1.29265 0.496311 2.86273
1.26893 0.454636 2.88345
1.24208 0.431591 2.87997
1.27294 0.495098 2.88732
1.28156 0.475187 2.8248
1.26142 0.461018 2.83677
1.38637 0.437271 2.80357
1.30883 0.484844 2.89082
1.31498 0.428291 2.82738
1.38235 0.469853 2.83972
1.31161 0.478979 2.80314
1.39007 0.431419 2.88167
1.48213 0.428017 2.88546
1.48717 0.434446 2.88517
1.40153 0.487261 2.81106
1.46084 0.434051 2.8163
1.44799 0.459621 2.88558
1.44171 0.433648 2.88812
1.50525 0.443651 2.83721
1.57518 0.488844 2.8544
1.53279 0.484531 2.86579
1.53077 0.479274 2.82346
1.53213 0.480949 2.87953
1.5361 0.492235 2.89154
1.68954 0.466652 2.81491
1.636 0.426872 2.81064
1.63128 0.424709 2.85153
1.66406 0.447726 2.884
1.60787 0.486438 2.87827
1.61232 0.490016 2.83448
1.73909 0.457809 2.85104
1.72686 0.445859 2.8274
1.77067 0.468041 2.8779
1.77303 0.470855 2.8649
1.74786 0.456481 2.86267
1.75221 0.422259 2.86761
1.89435 0.407602 2.81147
1.88283 0.494539 2.85591
1.80179 0.476191 2.81533
1.82085 0.48816 2.85639
1.83578 0.424744 2.84165
1.86862 0.418153 2.82543
1.93283 0.420271 2.81913
1.91358 0.474501 2.8704
1.92561 0.462372 2.86363
1.91366 0.441426 2.86863
1.92325 0.442218 2.86999
1.92596 0.427578 2.89133
2.03776 0.485185 2.87819
2.03416 0.436069 2.89289
2.01901 0.422359 2.88257
2.06524 0.448197 2.88842
2.04782 0.458899 2.81683
2.01395 0.460649 2.83701
2.17904 0.47627 2.82758
2.19344 0.496362 2.85982
2.16118 0.423866 2.80108
2.11768 0.485113 2.85626
2.1417 0.469467 2.84516
2.16729 0.409704 2.80755
2.21959 0.42435 2.8924
2.23102 0.425735 2.80887
2.28261 0.487427 2.85778
2.22065 0.404047 2.80903
2.21155 0.476764 2.83329
2.21744 0.404495 2.85358
2.38641 0.414329 2.85737
2.39266 0.495311 2.83457
2.33419 0.432559 2.81805
2.30888 0.497718 2.83176
2.37137 0.457783 2.82596
2.33542 0.475644 2.81222
2.45624 0.407792 2.88719
2.4363 0.425984 2.8713
2.42811 0.405271 2.89603
2.41814 0.434816 2.83587
2.41797 0.412757 2.80437
2.44791 0.435419 2.81752
2.54765 0.489499 2.87501
2.50594 0.455494 2.82494
2.58208 0.441156 2.8468
2.54714 0.434833 2.88945
2.56972 0.420855 2.83337
2.56282 0.472128 2.82808
2.6859 0.402911 2.80752
2.64565 0.442433 2.87644
2.65927 0.446425 2.87685
2.63473 0.491411 2.83398
2.62328 0.435046 2.88753
2.62488 0.428841 2.84197
2.78377 0.48518 2.88361
2.76648 0.401002 2.81325
2.76251 0.409214 2.89677
2.73842 0.413589 2.80837
2.72192 0.480967 2.84144
2.7679 0.442975 2.86005
2.88037 0.485943 2.8808
2.80231 0.436835 2.82051
2.89881 0.402038 2.89608
2.82167 0.410709 2.88236
2.81325 0.45219 2.85421
2.85614 0.404258 2.87338
2.91863 0.458162 2.82154
2.9379 0.494503 2.80626
2.96014 0.471156 2.80207
2.98368 0.456399 2.81697
2.96894 0.497944 2.84471
2.91565 0.465175 2.82561
3.01126 0.424127 2.85269
3.02982 0.485676 2.86956
3.0456 0.461231 2.81731
3.0102 0.451807 2.86063
3.03064 0.486163 2.81853
3.02551 0.489012 2.84615
0.437283 0.525543 2.8922
0.429015 0.568181 2.8458
0.492293 0.556246 2.82557
0.423802 0.531123 2.86639
0.436959 0.580315 2.86654
0.490376 0.593128 2.85642
0.582345 0.534514 2.82391
0.572261 0.502683 2.80865
0.524168 0.578631 2.88173
0.561872 0.584071 2.82713
0.571079 0.536577 2.83168
0.525006 0.503318 2.84669
0.627006 0.593782 2.85498
0.606514 0.515932 2.8966
0.682994 0.561687 2.82217
0.655555 0.537363 2.88244
0.683437 0.564751 2.8576
0.633372 0.558443 2.86142
0.746256 0.516578 2.81466
0.754472 0.54218 2.82447
0.798897 0.578184 2.80243
0.759966 0.562538 2.8689
0.716869 0.561775 2.88167
0.768334 0.51477 2.88937
0.848401 0.501783 2.85217
0.848561 0.573453 2.85979
0.859373 0.555629 2.85634
0.822087 0.591735 2.80192
0.83735 0.556806 2.81186
0.821481 0.533523 2.87913
0.922904 0.516093 2.82789
0.933317 0.582379 2.85424
0.990947 0.509414 2.85536
0.912668 0.554472 2.81378
0.971841 0.541012 2.86889
0.99306 0.535749 2.83092
1.08708 0.560223 2.81611
1.02611 0.548326 2.86598
1.06999 0.597823 2.8913
1.01322 0.583261 2.83099
1.00422 0.515141 2.87983
1.06684 0.517519 2.84623
1.16275 0.507463 2.87217
1.18704 0.557266 2.81898
1.1188 0.552375 2.86511
1.13447 0.583817 2.81995
1.19585 0.544112 2.88325
1.16733 0.547519 2.85323
1.2419 0.596775 2.87503
1.26926 0.592493 2.8317
1.23708 0.58851 2.84177
1.26288 0.588789 2.89252
1.22318 0.586189 2.82902
1.22876 0.576662 2.80602
1.347 0.548658 2.84808
1.39076 0.589284 2.8313
1.34185 0.546634 2.82659
1.32605 0.573452 2.88148
1.38271 0.542819 2.83543
1.34777 0.524641 2.83738
1.49779 0.522274 2.88958
1.47998 0.51247 2.83328
1.48405 0.56325 2.88503
1.45401 0.507234 2.85416
1.40439 0.512918 2.81317
1.47281 0.525727 2.80376
1.5198 0.576578 2.87677
1.52386 0.559984 2.88084
1.52968 0.518764 2.87873
1.59698 0.590157 2.83647
1.53237 0.564325 2.81159
1.58325 0.519445 2.85855
1.62858 0.502589 2.80117
1.65723 0.562157 2.80264
1.638 0.566988 2.87905
1.67691 0.542884 2.82037
1.63828 0.596156 2.81182
1.60181 0.532938 2.8799
1.75691 0.547446 2.80783
1.77644 0.555982 2.81208
1.78695 0.545783 2.88034
1.77319 0.536191 2.80328
1.78167 0.522491 2.89232
1.77589 0.590765 2.80743
1.84373 0.562511 2.83179
1.8842 0.503673 2.88211
1.83136 0.594753 2.80426
1.85758 0.505494 2.83725
1.81346 0.519168 2.85973
1.85913 0.552369 2.8345
1.91585 0.511326 2.88466
1.90615 0.589081 2.84208
1.94755 0.580789 2.82707
1.90492 0.517426 2.81482
1.91075 0.513682 2.83139
1.93417 0.574804 2.81739
2.09831 0.515646 2.85118
2.0279 0.510272 2.84018
2.05748 0.544222 2.83384
2.04097 0.587957 2.89385
2.00145 0.56345 2.82669
2.07796 0.546267 2.8182
2.15837 0.547564 2.87149
2.16222 0.546453 2.88733
2.18458 0.55698 2.85103
2.1321 0.580463 2.85736
2.11619 0.51335 2.83338
2.14446 0.514682 2.82128
2.29524 0.520018 2.85503
2.28757 0.570452 2.88826
2.22688 0.537129 2.84166
2.2948 0.515563 2.81501
2.27356 0.557673 2.897
2.21042 0.577545 2.86518
2.36491 0.573407 2.84083
2.33574 0.5949 2.85476
2.33908 0.593524 2.8856
2.3392 0.569532 2.82249
2.35478 0.538159 2.84674
2.30676 0.52176 2.82972
2.43405 0.577236 2.81288
2.41895 0.544607 2.80355
2.44081 0.505374 2.89777
2.44256 0.564836 2.80315
2.46711 0.581312 2.85375
2.47477 0.572841 2.81275
2.50504 0.569095 2.82231
2.55287 0.509999 2.81964
2.57779 0.568169 2.87145
2.50611 0.589689 2.82406
2.51433 0.512803 2.82805
2.54881 0.579312 2.81944
2.69168 0.502908 2.88886
2.64213 0.57131 2.88225
2.60335 0.525614 2.89845
2.68631 0.551142 2.8961
2.61597 0.537604 2.88046
2.6887 0.556285 2.81326
2.73757 0.504097 2.86466
2.78247 0.529519 2.81931
2.74749 0.540278 2.80806
2.77881 0.525495 2.84583
2.76534 0.558785 2.86631
2.79318 0.584496 2.86841
2.89358 0.522555 2.84102
2.85825 0.588381 2.88283
2.82537 0.530071 2.88842
2.89205 0.567908 2.81081
2.82455 0.540655 2.82744
2.83503 0.588854 2.84676
2.90233 0.592883 2.83181
2.98694 0.564465 2.88235
2.98973 0.508967 2.87033
2.94625 0.517881 2.85649
2.93882 0.546651 2.86259
2.99672 0.577902 2.81485
3.06884 0.583627 2.82986
3.08598 0.501818 2.8091
3.05431 0.573144 2.87375
3.01894 0.568863 2.86111
3.01145 0.596462 2.86388
3.09807 0.576789 2.8264
0.473668 0.661526 2.89028
0.493997 0.609345 2.89778
0.487713 0.670546 2.85706
0.451796 0.624404 2.86389
0.461808 0.663966 2.85816
0.498621 0.636839 2.88582
0.523171 0.62011 2.84017
0.575132 0.619173 2.86792
0.559666 0.669648 2.86315
0.555943 0.695853 2.85988
0.518429 0.610914 2.86983
0.547116 0.613887 2.83017
0.697637 0.692162 2.8833
0.646167 0.692766 2.80466
0.645627 0.655487 2.89437
0.693194 0.616189 2.89468
0.66775 0.685909 2.81769
0.674621 0.67316 2.83133
0.737288 0.668367 2.86914
0.766973 0.698292 2.88975
0.725882 0.695819 2.88382
0.796434 0.682011 2.8708
0.755751 0.678254 2.81498
0.720108 0.663282 2.86227
0.823406 0.660214 2.8347
0.81769 0.613946 2.88746
0.871142 0.602169 2.85724
0.892991 0.62781 2.88724
0.898794 0.612631 2.82474
0.877875 0.613645 2.89378
0.968567 0.618876 2.83124
0.961009 0.619118 2.81528
0.997799 0.677154 2.8911
0.904176 0.659229 2.8429
0.975543 0.69161 2.87188
0.907784 0.609949 2.83132
1.07507 0.654379 2.80866
1.0777 0.614845 2.82256
1.0243 0.665646 2.89164
1.05135 0.61644 2.81703
1.01133 0.614556 2.82678
1.00484 0.602647 2.87528
1.15408 0.682495 2.81021
1.1551 0.625502 2.8851
1.14629 0.656886 2.86293
1.1215 0.67378 2.88155
1.10533 0.671194 2.81802
1.1869 0.626125 2.81721
1.28412 0.6438 2.87013
1.20807 0.601008 2.85173
1.23293 0.643679 2.80973
1.2382 0.666523 2.87676
1.28731 0.626042 2.88556
1.21537 0.646231 2.88404
1.38235 0.616345 2.82144
1.32421 0.630184 2.85322
1.30909 0.669642 2.84129
1.39522 0.616908 2.85644
1.35302 0.67294 2.86773
1.32379 0.668194 2.81154
1.48599 0.684351 2.85209
1.40346 0.688745 2.89014
1.4911 0.618216 2.81692
1.44153 0.619049 2.8324
1.41714 0.638867 2.86726
1.42659 0.68554 2.83781
1.56662 0.698398 2.81063
1.53791 0.641915 2.87538
1.54363 0.667101 2.81082
1.55492 0.671398 2.81848
1.51932 0.620209 2.80428
1.52715 0.674676 2.80226
1.68876 0.642036 2.82877
1.63771 0.670368 2.85718
1.64459 0.608576 2.81644
1.65146 0.694363 2.86518
1.66705 0.66013 2.84789
1.64268 0.612457 2.87715
1.71642 0.644916 2.84564
1.71908 0.657338 2.89077
1.73945 0.696412 2.87028
1.75356 0.63802 2.81542
1.75976 0.665362 2.85738
1.7959 0.605155 2.81286
1.85399 0.697295 2.83842
1.86933 0.606274 2.81953
1.89416 0.620651 2.86917
1.87044 0.68227 2.83819
1.88298 0.612461 2.85613
1.87513 0.606996 2.89285
1.94253 0.616991 2.88627
1.94116 0.607601 2.81392
1.99773 0.624798 2.86021
1.90533 0.683543 2.80561
1.93044 0.636039 2.8278
1.98095 0.694717 2.82911
2.02048 0.660845 2.89004
2.07235 0.652574 2.80242
2.08386 0.617404 2.85592
2.09076 0.682418 2.80347
2.07598 0.610559 2.86344
2.04381 0.689906 2.8764
2.10486 0.685575 2.8898
2.18719 0.631996 2.8059
2.12169 0.6959 2.83013
2.12898 0.678918 2.87659
2.12598 0.632761 2.88951
2.1554 0.612381 2.82294
2.21715 0.638488 2.81481
2.26238 0.637316 2.87156
2.21153 0.631075 2.86989
2.21263 0.61803 2.89856
2.26567 0.684681 2.81238
2.21779 0.625024 2.888
2.34202 0.698592 2.8434
2.38662 0.660136 2.80179
2.38926 0.668352 2.87479
2.31635 0.629889 2.88879
2.31221 0.658075 2.82983
2.30185 0.605744 2.86505
2.47488 0.671455 2.84812
2.48953 0.620901 2.80578
2.49238 0.659278 2.89538
2.48493 0.645885 2.86958
2.41112 0.601228 2.81079
2.49063 0.608758 2.86226
2.51728 0.690282 2.80286
2.53306 0.682686 2.83443
2.56782 0.693793 2.8981
2.52197 0.678088 2.81811
2.50165 0.622506 2.89433
2.55581 0.603021 2.80928
2.65702 0.64013 2.8662
2.69119 0.625756 2.89723
2.62181 0.64875 2.83392
2.67068 0.607899 2.82171
2.66857 0.613447 2.886
2.60222 0.655778 2.83596
2.77687 0.671455 2.88579
2.76319 0.671602 2.87441
2.71943 0.617947 2.80947
2.75176 0.674222 2.82254
2.71543 0.601644 2.8119
2.73244 0.657068 2.884
2.80164 0.691871 2.86939
2.84056 0.611204 2.88966
2.87308 0.688444 2.80211
2.89304 0.675277 2.84866
2.87019 0.662866 2.83033
2.87676 0.664773 2.80285
2.90841 0.697326 2.82488
2.98735 0.638865 2.84366
2.90627 0.619588 2.8077
2.92852 0.64461 2.84591
2.90787 0.60788 2.84425
2.9168 0.646535 2.85185
3.00782 0.666887 2.85843
3.07111 0.646605 2.85571
3.05698 0.637427 2.85241
3.01895 0.669278 2.87944
3.02481 0.698083 2.83692
3.0834 0.602768 2.84385
0.470335 0.703677 2.83934
0.455536 0.70999 2.85679
0.491983 0.747182 2.82498
0.443438 0.768329 2.85678
0.467579 0.714591 2.80773
0.477686 0.734172 2.81073
0.578575 0.78811 2.83055
0.551089 0.769989 2.85688
0.58026 0.73033 2.8205
0.501742 0.716041 2.8576
0.558556 0.770417 2.86972
0.58707 0.718236 2.89006
0.61777 0.75421 2.80559
0.668795 0.747406 2.86729
0.633847 0.744291 2.87305
0.610532 0.759458 2.86712
0.690232 0.709215 2.86844
0.605803 0.714391 2.81876
0.718264 0.765473 2.82534
0.768398 0.785291 2.89228
0.710693 0.756554 2.89733
0.785786 0.728499 2.8705
0.709518 0.738333 2.84831
0.765517 0.759979 2.80353
0.861432 0.780532 2.8697
0.855979 0.711005 2.84737
0.853814 0.751643 2.89496
0.855334 0.731011 2.82101
0.822858 0.711054 2.8093
0.84119 0.773717 2.85672
0.952587 0.726209 2.88256
0.985835 0.70104 2.82659
0.920884 0.755276 2.81319
0.922994 0.701599 2.82609
0.993548 0.721065 2.81219
0.919029 0.746014 2.89866
1.00633 0.75369 2.83354
1.0838 0.758999 2.8237
1.02983 0.730095 2.80606
1.0149 0.721171 2.81843
1.09754 0.790529 2.87266
1.03014 0.754467 2.89122
1.10645 0.767155 2.89635
1.14447 0.752431 2.83066
1.11119 0.779607 2.85833
1.10718 0.757661 2.80706
