ply
format ascii 1.0
element vertex 1788
property float x
property float y
property float z
end_header
0.568411 0.158178 0.158794
0.575296 0.146691 0.147345
0.578185 0.154178 0.156181
0.562737 0.143995 0.158355
0.564952 0.145603 0.151408
0.590242 0.143029 0.144323
0.583754 0.140893 0.14738
0.593773 0.149683 0.159216
0.597015 0.155232 0.146532
0.584802 0.150939 0.158471
0.585251 0.1517 0.156405
0.603644 0.141862 0.154745
0.605827 0.144988 0.143166
0.617262 0.145506 0.140395
0.605238 0.154851 0.153137
0.605321 0.15668 0.14358
0.61227 0.152363 0.152822
0.0909382 0.179232 0.144312
0.0820089 0.166351 0.158556
0.0864978 0.162468 0.14062
0.0915916 0.167145 0.142697
0.0914316 0.162395 0.151599
0.0888018 0.170456 0.153699
0.104703 0.163785 0.157648
0.107014 0.178582 0.147499
0.104057 0.170556 0.151615
0.104237 0.16534 0.156837
0.114917 0.165345 0.142127
0.102155 0.161288 0.154827
0.128648 0.164228 0.147836
0.13949 0.175414 0.155783
0.122568 0.165497 0.141262
0.137801 0.176401 0.144069
0.135065 0.170301 0.144817
0.122792 0.170778 0.14913
0.159127 0.168758 0.141753
0.142067 0.169125 0.159758
0.152086 0.168357 0.149266
0.146745 0.173863 0.142907
0.152195 0.163592 0.144344
0.156187 0.177902 0.154416
0.178512 0.164166 0.14176
0.161038 0.167347 0.151187
0.162978 0.175874 0.14133
0.162388 0.164958 0.146981
0.162071 0.162309 0.149168
0.163055 0.169012 0.15758
0.185643 0.171882 0.140986
0.191184 0.176087 0.151308
0.194747 0.176276 0.156489
0.191383 0.177936 0.150413
0.192223 0.176388 0.153489
0.187882 0.177874 0.159021
0.212272 0.162663 0.154675
0.214966 0.171008 0.148292
0.212325 0.163434 0.155143
0.217389 0.17151 0.156449
0.217807 0.179326 0.155628
0.20615 0.174323 0.144571
0.236541 0.166541 0.15912
0.223177 0.168851 0.153812
0.222087 0.172798 0.142565
0.228789 0.165752 0.147456
0.221102 0.162472 0.143914
0.224519 0.163641 0.145786
0.254973 0.166725 0.146256
0.251321 0.161153 0.153692
0.240966 0.168805 0.151215
0.242984 0.160258 0.153653
0.2461 0.163187 0.143673
0.258034 0.167042 0.157687
0.271322 0.162382 0.152315
0.275654 0.169269 0.140621
0.26833 0.176956 0.157849
0.279797 0.176222 0.142727
0.272431 0.16312 0.151006
0.27592 0.165386 0.145219
0.287344 0.173567 0.142886
0.286815 0.164817 0.147355
0.285099 0.167626 0.157453
0.293788 0.177495 0.157144
0.291185 0.162624 0.142805
0.295374 0.173179 0.142719
0.303809 0.176501 0.142424
0.311732 0.169165 0.153263
0.304748 0.167948 0.153144
0.300276 0.174431 0.143846
0.318771 0.172626 0.150846
0.31513 0.17379 0.156243
0.336195 0.175048 0.141673
0.334918 0.166971 0.144974
0.335736 0.170374 0.156886
0.331765 0.174351 0.158413
0.339249 0.163482 0.144365
0.327077 0.1649 0.1424
0.351345 0.16836 0.15802
0.342496 0.164055 0.145976
0.350843 0.179237 0.147978
0.35759 0.163547 0.155196
0.354434 0.170629 0.14403
0.359125 0.165933 0.151233
0.374674 0.179436 0.141639
0.373444 0.176579 0.143616
0.372245 0.177011 0.156511
0.361954 0.172789 0.149333
0.369652 0.175915 0.158257
0.368454 0.171972 0.155012
0.380257 0.160421 0.15044
0.382449 0.163329 0.143174
0.398433 0.170731 0.142704
0.398708 0.160308 0.154652
0.388654 0.167741 0.153216
0.382303 0.177524 0.158521
0.400606 0.162787 0.142327
0.410863 0.17243 0.145716
0.403497 0.175828 0.157915
0.419761 0.177382 0.15329
0.416626 0.174851 0.142988
0.407964 0.163261 0.147434
0.438589 0.165424 0.157768
0.436382 0.161105 0.142646
0.43483 0.17658 0.159185
0.438076 0.16874 0.14968
0.420735 0.172143 0.145561
0.428852 0.163566 0.142615
0.444044 0.174436 0.154658
0.459783 0.165545 0.154846
0.45751 0.178011 0.14086
0.441237 0.169616 0.140261
0.447397 0.164808 0.15602
0.454836 0.179391 0.159434
0.472966 0.176195 0.153126
0.47095 0.175292 0.15475
0.46691 0.17074 0.144883
0.475574 0.172617 0.152626
0.464868 0.178124 0.143722
0.473994 0.164264 0.156268
0.488057 0.160304 0.149673
0.497438 0.177661 0.141178
0.493123 0.161005 0.155808
0.497853 0.174516 0.159703
0.486365 0.174227 0.154738
0.480959 0.171081 0.156074
0.514229 0.174306 0.146582
0.506929 0.170512 0.154712
0.504433 0.163684 0.147774
0.508176 0.160773 0.15222
0.519313 0.16228 0.14515
0.518861 0.160461 0.142726
0.521089 0.173536 0.145279
0.526818 0.169091 0.142037
0.533502 0.175696 0.153401
0.52624 0.178572 0.159227
0.53941 0.171272 0.141975
0.538706 0.164962 0.15343
0.545878 0.174153 0.149526
0.547672 0.178934 0.149368
0.547651 0.167486 0.141371
0.546636 0.16222 0.154185
0.545843 0.161958 0.141539
0.546579 0.16382 0.151099
0.569444 0.178468 0.142875
0.571401 0.176313 0.155557
0.566473 0.172319 0.158955
0.56275 0.168949 0.142866
0.568816 0.1662 0.145864
0.577753 0.167242 0.152359
0.585694 0.177133 0.15288
0.585471 0.161057 0.148148
0.596355 0.163257 0.144197
0.588391 0.177421 0.148224
0.58088 0.163475 0.140726
0.584316 0.174906 0.155594
0.617466 0.1617 0.158742
0.605531 0.160381 0.157811
0.605642 0.163357 0.156974
0.611842 0.172688 0.144192
0.612434 0.161585 0.141031
0.617985 0.161777 0.145533
0.0894819 0.187941 0.155163
0.0891976 0.189197 0.141605
0.0973937 0.191238 0.153465
0.0944942 0.19226 0.143439
0.0918858 0.183633 0.151857
0.0819392 0.198471 0.142935
0.104722 0.183386 0.159274
0.108005 0.183554 0.147212
0.113147 0.191629 0.144766
0.114117 0.183222 0.14566
0.118526 0.188854 0.143938
0.114163 0.191074 0.151741
0.13225 0.19778 0.1566
0.128751 0.186005 0.141153
0.134591 0.196467 0.147231
0.139032 0.186049 0.159066
0.125715 0.191212 0.14512
0.12737 0.196221 0.148296
0.147614 0.191151 0.154929
0.141755 0.196873 0.155915
0.146236 0.185083 0.141219
0.150937 0.188594 0.1467
0.158376 0.183747 0.157623
0.156211 0.198839 0.156578
0.175145 0.195293 0.145402
0.173189 0.19434 0.141991
0.174736 0.184325 0.157058
0.164062 0.185774 0.142168
0.161944 0.197858 0.15594
0.172434 0.194728 0.148103
0.199711 0.195711 0.147628
0.188463 0.195193 0.158195
0.183883 0.193005 0.155458
0.185521 0.187744 0.145212
0.180975 0.195062 0.141393
0.192157 0.197164 0.150298
0.201191 0.188317 0.144309
0.204158 0.196065 0.144214
0.204836 0.181889 0.158683
0.200889 0.180592 0.142645
0.213759 0.18083 0.152064
0.203539 0.1876 0.14465
0.23641 0.185885 0.149203
0.223328 0.191131 0.155684
0.22203 0.191388 0.150701
0.223163 0.181231 0.141786
0.237761 0.193219 0.141541
0.235288 0.196983 0.152937
0.247695 0.18099 0.159437
0.242871 0.199783 0.1572
0.250986 0.195194 0.153219
0.248732 0.190284 0.142289
0.243469 0.199604 0.152605
0.259796 0.186723 0.158441
0.276325 0.188393 0.144702
0.277658 0.197324 0.141754
0.27456 0.197548 0.154817
0.272965 0.185066 0.149131
0.262821 0.199569 0.141214
0.260467 0.183035 0.144634
0.287598 0.188489 0.157211
0.292935 0.182971 0.151573
0.297646 0.184063 0.158312
0.28428 0.18521 0.151469
0.287155 0.193903 0.142068
0.284115 0.185101 0.157323
0.31817 0.181167 0.144747
0.304975 0.182167 0.151139
0.304246 0.181914 0.148619
0.309053 0.19089 0.140874
0.308027 0.19159 0.152433
0.306083 0.18878 0.154653
0.32442 0.181646 0.150861
0.329203 0.191927 0.153446
0.321589 0.195877 0.152512
0.333917 0.196458 0.14892
0.323892 0.19068 0.14249
0.332799 0.191554 0.143797
0.351207 0.187764 0.15176
0.358598 0.185152 0.146918
0.344348 0.198825 0.144563
0.359281 0.191748 0.153781
0.346102 0.195022 0.145989
0.358449 0.194342 0.1546
0.369602 0.194006 0.159572
0.363152 0.185233 0.143108
0.376659 0.195878 0.159458
0.365839 0.189514 0.143053
0.374292 0.185321 0.145692
0.375226 0.189044 0.15717
0.38853 0.185472 0.152609
0.385571 0.187456 0.14718
0.397741 0.183471 0.154246
0.392259 0.183426 0.142597
0.395266 0.186691 0.14929
0.389564 0.198684 0.143758
0.40527 0.193835 0.152729
0.409125 0.180917 0.141299
0.413612 0.190606 0.149789
0.404222 0.181428 0.157344
0.408647 0.198685 0.148212
0.41156 0.184915 0.149715
0.435689 0.188559 0.150918
0.430678 0.191294 0.148735
0.424195 0.199397 0.154665
0.425482 0.193348 0.15901
0.431965 0.182787 0.155955
0.432608 0.185658 0.147224
0.455434 0.180429 0.140627
0.44276 0.192781 0.153756
0.445526 0.198436 0.143624
0.453891 0.187341 0.146838
0.448327 0.195597 0.150351
0.443514 0.198291 0.144303
0.461865 0.199097 0.140906
0.465344 0.195488 0.15233
0.473604 0.186533 0.147946
0.476562 0.188695 0.15238
0.468845 0.189168 0.157213
0.476722 0.193856 0.150342
0.485263 0.199167 0.145105
0.484225 0.192159 0.15293
0.499715 0.191387 0.151727
0.491698 0.198084 0.153018
0.48832 0.190577 0.143058
0.498302 0.186557 0.155709
0.516615 0.188863 0.148401
0.505838 0.180239 0.146273
0.503286 0.199195 0.141974
0.50532 0.182145 0.15217
0.508798 0.196949 0.142027
0.513159 0.184744 0.141038
0.535496 0.187448 0.14921
0.535299 0.180387 0.155199
0.523733 0.181231 0.140308
0.532529 0.182992 0.156449
0.533652 0.190878 0.142875
0.538612 0.190733 0.156977
0.540677 0.19325 0.148585
0.550896 0.196342 0.158219
0.556205 0.187822 0.152398
0.559312 0.186617 0.141323
0.554135 0.19964 0.15162
0.545834 0.196124 0.148314
0.569031 0.19946 0.150889
0.569257 0.18632 0.159743
0.570512 0.189365 0.14614
0.575661 0.185259 0.144771
0.575735 0.18978 0.144769
0.574453 0.188404 0.146103
0.596067 0.187672 0.155796
0.589396 0.19756 0.149307
0.581534 0.183875 0.146629
0.582961 0.184747 0.147774
0.597196 0.185622 0.149744
0.582541 0.186166 0.151149
0.607562 0.187497 0.15303
0.605679 0.181313 0.151959
0.605701 0.194883 0.159331
0.615375 0.199068 0.151002
0.610592 0.199507 0.151643
0.61742 0.187932 0.157096
0.0882263 0.215902 0.15773
0.0918175 0.206055 0.144726
0.0822703 0.206377 0.152667
0.0980897 0.209709 0.144812
0.0941767 0.21807 0.157759
0.0977448 0.21181 0.15858
0.104315 0.216914 0.149544
0.10115 0.208424 0.146772
0.10788 0.201893 0.140208
0.105373 0.209125 0.156605
0.107895 0.204759 0.144207
0.110813 0.211957 0.145852
0.121044 0.202469 0.158904
0.138271 0.204981 0.142207
0.136342 0.207432 0.145913
0.121635 0.214399 0.155701
0.129431 0.212473 0.148296
0.134314 0.206789 0.148563
0.154893 0.201129 0.147269
0.14847 0.210701 0.146443
0.159396 0.217779 0.158539
0.15226 0.213802 0.149761
0.142 0.206041 0.146396
0.159068 0.212786 0.154173
0.171458 0.21372 0.154833
0.166363 0.214662 0.143927
0.173748 0.201688 0.146561
0.17966 0.204451 0.152049
0.176694 0.21949 0.145251
0.17595 0.207415 0.154454
0.192359 0.209705 0.15396
0.197466 0.219426 0.15159
0.190332 0.210737 0.1506
0.193229 0.21966 0.147227
0.185147 0.200384 0.153983
0.185374 0.215058 0.151594
0.210774 0.205311 0.140807
0.216411 0.210611 0.159284
0.216937 0.216663 0.152809
0.211227 0.215033 0.155277
0.207668 0.215737 0.153558
0.216215 0.203722 0.140514
0.227701 0.20447 0.149741
0.230509 0.200703 0.149516
0.237141 0.2018 0.15418
0.236909 0.204643 0.144728
0.23366 0.202624 0.157685
0.230404 0.214017 0.158772
0.2492 0.208761 0.159209
0.245109 0.200502 0.157395
0.259603 0.2008 0.144053
0.245024 0.205492 0.145326
0.256202 0.217211 0.144842
0.243826 0.212394 0.143039
0.265361 0.217181 0.15753
0.277635 0.203505 0.153698
0.278049 0.212943 0.152862
0.273748 0.202754 0.151511
0.274117 0.200539 0.149002
0.276985 0.218945 0.157142
0.288285 0.207904 0.146301
0.293679 0.209217 0.151953
0.281736 0.207936 0.140339
0.287584 0.213131 0.154852
0.295672 0.206967 0.147066
0.288364 0.204468 0.15214
0.312856 0.210524 0.159514
0.311811 0.205176 0.148587
0.317062 0.211995 0.144856
0.316629 0.217785 0.140258
0.308065 0.216759 0.151017
0.300893 0.200939 0.155755
0.32387 0.203756 0.151953
0.323484 0.21688 0.159588
0.338338 0.207556 0.151069
0.333289 0.201208 0.153405
0.337301 0.201967 0.142088
0.327523 0.217542 0.154155
0.353106 0.203953 0.141929
0.359511 0.205706 0.14676
0.356911 0.212681 0.151631
0.357064 0.210919 0.153512
0.348244 0.205484 0.15207
0.341682 0.206571 0.153173
0.371646 0.205438 0.158536
0.372808 0.213458 0.155536
0.371521 0.21712 0.149454
0.377503 0.207124 0.151767
0.373638 0.205476 0.142647
0.377655 0.216909 0.150786
0.386158 0.216542 0.144922
0.395696 0.213878 0.14884
0.389717 0.200468 0.15108
0.383447 0.213207 0.144281
0.396955 0.217172 0.157555
0.390355 0.216342 0.157658
0.407775 0.211928 0.147713
0.416091 0.204197 0.145309
0.40212 0.205096 0.152262
0.408649 0.214497 0.141976
0.415953 0.216157 0.145626
0.412352 0.214859 0.1449
0.428419 0.215115 0.151328
0.438397 0.202855 0.147627
0.431708 0.208459 0.1451
0.438022 0.214155 0.141671
0.430837 0.201999 0.151106
0.437185 0.214233 0.15863
0.451545 0.201477 0.141775
0.450972 0.217566 0.159319
0.458073 0.216066 0.158993
0.447748 0.217378 0.143585
0.442829 0.204399 0.148919
0.453226 0.205258 0.140346
0.464229 0.208544 0.151142
0.469201 0.201785 0.142354
0.47609 0.209746 0.147667
0.460201 0.207645 0.140761
0.472377 0.203524 0.15798
0.473445 0.215813 0.141429
0.492707 0.214143 0.141674
0.482095 0.218732 0.155978
0.487601 0.212456 0.142865
0.486489 0.21921 0.156396
0.49192 0.210848 0.155469
0.499059 0.216048 0.142837
0.507627 0.211985 0.151767
0.508683 0.208837 0.142035
0.505937 0.20156 0.151598
0.513542 0.213779 0.155023
0.501163 0.214475 0.141014
0.513301 0.210469 0.143856
0.524818 0.204276 0.153009
0.530207 0.20315 0.153237
0.537487 0.204316 0.143681
0.534654 0.20421 0.141204
0.539061 0.206589 0.144473
0.529395 0.217509 0.157585
0.54057 0.216164 0.151307
0.55519 0.201848 0.15273
0.541222 0.218799 0.150937
0.552447 0.21052 0.154493
0.554431 0.201161 0.142016
0.549454 0.215686 0.143208
0.577786 0.21202 0.1479
0.567873 0.213523 0.155235
0.571536 0.218019 0.154487
0.571627 0.214086 0.153068
0.577758 0.214242 0.1462
0.574734 0.203141 0.149552
0.58673 0.204037 0.145562
0.5924 0.214102 0.156982
0.583885 0.217781 0.143155
0.585711 0.200362 0.159671
0.593658 0.217903 0.152021
0.596529 0.2091 0.158077
0.618199 0.204544 0.1409
0.604292 0.206581 0.158974
0.601981 0.201013 0.140991
0.616581 0.20917 0.157696
0.614345 0.201952 0.140253
0.603255 0.210227 0.153118
0.0971377 0.234966 0.152807
0.0906339 0.232374 0.155976
0.0820553 0.229652 0.14946
0.089643 0.236924 0.156357
0.0851174 0.239468 0.157615
0.0888108 0.234211 0.153875
0.118911 0.223806 0.159276
0.106688 0.220974 0.151009
0.113682 0.229678 0.141503
0.101048 0.238615 0.145694
0.119784 0.231726 0.151007
0.113716 0.231676 0.144972
0.12604 0.237623 0.141675
0.138055 0.220819 0.152409
0.124302 0.220947 0.156932
0.12727 0.237651 0.154822
0.125946 0.235152 0.153021
0.131679 0.233212 0.144533
0.140269 0.23668 0.14788
0.145319 0.226915 0.140881
0.144621 0.236895 0.141872
0.147159 0.220237 0.153016
0.157064 0.234623 0.154998
0.155974 0.233758 0.156307
0.167322 0.236035 0.152681
0.162068 0.226832 0.145308
0.172786 0.235306 0.147003
0.177725 0.232705 0.145259
0.16506 0.224432 0.142142
0.178194 0.226713 0.158224
0.193468 0.225706 0.157863
0.192153 0.226434 0.146871
0.198254 0.222304 0.144524
0.18023 0.239384 0.159718
0.184188 0.236519 0.156006
0.186646 0.222947 0.151332
0.207332 0.236663 0.151103
0.205543 0.235989 0.150873
0.204794 0.238855 0.150399
0.215998 0.234639 0.147043
0.21529 0.221327 0.154475
0.219641 0.221784 0.142494
0.238148 0.239155 0.149327
0.236691 0.236173 0.148005
0.237423 0.221345 0.142019
0.230261 0.226096 0.152627
0.232036 0.226172 0.150596
0.224446 0.222858 0.154659
0.246071 0.222938 0.142638
0.242069 0.222369 0.154534
0.253663 0.221099 0.156471
0.249631 0.233928 0.150255
0.251136 0.223388 0.159771
0.255927 0.22067 0.141902
0.261069 0.22519 0.154283
0.265644 0.23046 0.140315
0.277269 0.221767 0.142445
0.269396 0.225415 0.157
0.272869 0.226389 0.143505
0.277946 0.233395 0.147106
0.294 0.238164 0.154187
0.282324 0.235682 0.154585
0.293557 0.230731 0.157033
0.296311 0.234507 0.151062
0.298889 0.234921 0.151271
0.280769 0.234375 0.148165
0.317158 0.228067 0.150255
0.315895 0.230249 0.149529
0.305918 0.236187 0.156758
0.308927 0.22501 0.146881
0.317992 0.23107 0.143748
0.300207 0.233358 0.149198
0.332502 0.221245 0.152319
0.320346 0.220276 0.143785
0.332206 0.233624 0.144655
0.326917 0.220592 0.140646
0.330766 0.221999 0.15401
0.327626 0.23674 0.145514
0.351534 0.235412 0.14104
0.345159 0.226716 0.145199
0.346902 0.238756 0.149622
0.347145 0.237104 0.148667
0.341604 0.237752 0.157064
0.344573 0.220561 0.144558
0.365024 0.220397 0.151957
0.362856 0.227214 0.148313
0.366363 0.225648 0.157232
0.366366 0.237964 0.148219
0.362691 0.233056 0.143118
0.376487 0.235441 0.151425
0.381645 0.234781 0.159519
0.385479 0.229299 0.140496
0.390836 0.223322 0.155598
0.399453 0.228767 0.15377
0.39045 0.237431 0.147178
0.396984 0.238258 0.142283
0.41568 0.228013 0.14825
0.413028 0.229352 0.151175
0.413418 0.232505 0.157958
0.409088 0.223443 0.153187
0.419266 0.235693 0.151302
0.417724 0.238441 0.142295
0.427853 0.228279 0.143894
0.429002 0.238819 0.141248
0.438718 0.228398 0.142822
0.431131 0.229466 0.145314
0.426715 0.22101 0.145712
0.424315 0.227523 0.143531
0.458451 0.220274 0.156805
0.442577 0.228183 0.145101
0.456816 0.234363 0.151882
0.459283 0.231113 0.155576
0.456369 0.232367 0.147734
0.457934 0.237529 0.151964
0.461635 0.23135 0.152011
0.46713 0.232333 0.153484
0.462276 0.228931 0.140802
0.470596 0.239462 0.146205
0.466153 0.237772 0.156191
0.470853 0.223056 0.146804
0.48091 0.231914 0.147418
0.490785 0.22418 0.154314
0.492478 0.233566 0.156941
0.492016 0.234145 0.153366
0.4961 0.220315 0.14412
0.484831 0.228135 0.159174
0.504714 0.22264 0.158858
0.500373 0.223939 0.145882
0.502068 0.236446 0.141626
0.516333 0.221461 0.140807
0.50287 0.221465 0.145775
0.506265 0.228556 0.150534
0.53296 0.221354 0.148869
0.526619 0.222546 0.156859
0.52355 0.227541 0.153735
0.535316 0.226541 0.149285
0.522733 0.228152 0.149418
0.530653 0.224673 0.155564
0.543968 0.237997 0.157461
0.548292 0.230335 0.145826
0.545735 0.236629 0.158948
0.544159 0.230561 0.15911
0.553014 0.236399 0.158634
0.55603 0.229435 0.143451
0.565695 0.238292 0.145011
0.565187 0.222797 0.149415
0.579049 0.234042 0.143352
0.578259 0.227656 0.157826
0.576447 0.231695 0.148705
0.568255 0.235873 0.145081
0.584841 0.225253 0.145665
0.593081 0.232626 0.155072
0.585494 0.2266 0.141657
0.582975 0.23124 0.154868
0.580355 0.22443 0.143769
0.591387 0.233506 0.140408
0.614655 0.222102 0.146269
0.600884 0.235227 0.144488
0.60574 0.220472 0.146546
0.606752 0.228752 0.148652
0.606006 0.236241 0.141338
0.604218 0.231388 0.145329
0.0937411 0.248897 0.142927
0.0918779 0.254414 0.155794
0.0929996 0.251907 0.147792
0.0947545 0.257466 0.156112
0.0878511 0.250207 0.143007
0.0934892 0.256703 0.146912
0.110871 0.257032 0.144824
0.119511 0.258361 0.145356
0.119704 0.240986 0.156606
0.116236 0.258778 0.147297
0.109108 0.242787 0.144124
0.104798 0.250703 0.147356
0.13856 0.254845 0.143925
0.134853 0.252642 0.15916
0.122198 0.241791 0.156437
0.125235 0.255726 0.147526
0.130317 0.248275 0.152007
0.131706 0.258748 0.149428
0.140326 0.258717 0.154128
0.149504 0.244552 0.158761
0.154202 0.256731 0.157181
0.15862 0.256528 0.142515
0.157438 0.253289 0.14318
0.148703 0.247112 0.144499
0.16857 0.258244 0.15646
0.1641 0.242954 0.14622
0.175311 0.243352 0.142731
0.173964 0.24052 0.146541
0.170789 0.246191 0.142621
0.176214 0.24519 0.148246
0.196473 0.246036 0.148769
0.185023 0.248903 0.149597
0.193296 0.257832 0.15616
0.199299 0.256144 0.155146
0.194958 0.251144 0.154863
0.183708 0.245753 0.144961
0.203072 0.259458 0.148732
0.202063 0.249336 0.157407
0.219798 0.250631 0.142511
0.203884 0.246551 0.15246
0.218158 0.258605 0.140602
0.217324 0.255876 0.155
0.230596 0.250767 0.146538
0.23575 0.24597 0.153277
0.221033 0.245637 0.149141
0.23219 0.245162 0.158469
0.226381 0.242749 0.140464
0.224498 0.258732 0.142398
0.241308 0.252322 0.15559
0.256238 0.247411 0.14068
0.241585 0.256921 0.145316
0.245351 0.241423 0.141478
0.257425 0.256994 0.152727
0.253856 0.246419 0.14279
0.263104 0.243952 0.156658
0.268341 0.241178 0.151255
0.276824 0.244475 0.146264
0.26178 0.242451 0.145275
0.268543 0.243862 0.1467
0.261632 0.259371 0.147047
0.281157 0.246798 0.152548
0.298092 0.25704 0.152393
0.292745 0.251276 0.148515
0.299174 0.252852 0.154291
0.297521 0.257081 0.15751
0.294957 0.25912 0.140752
0.303188 0.243885 0.158956
0.317183 0.244973 0.145344
0.314052 0.253829 0.144203
0.305277 0.242963 0.154311
0.31971 0.25464 0.145813
0.31488 0.257417 0.154508
0.33377 0.256389 0.142258
0.325218 0.242995 0.141937
0.322773 0.258447 0.142114
0.325314 0.255951 0.15756
0.322259 0.246429 0.144631
0.322569 0.243452 0.142565
0.351075 0.244628 0.147176
0.348963 0.250649 0.15916
0.356265 0.253806 0.15824
0.351719 0.252918 0.143949
0.344763 0.248625 0.159393
0.350976 0.249712 0.142436
0.370326 0.257713 0.155264
0.373004 0.241647 0.143384
0.367233 0.240835 0.142076
0.36138 0.241355 0.145722
0.373347 0.259152 0.149689
0.365577 0.250509 0.15782
0.382853 0.252305 0.155758
0.397245 0.251962 0.155517
0.393824 0.256118 0.150409
0.38064 0.240586 0.158439
0.382906 0.259424 0.159159
0.396175 0.249134 0.156371
0.404498 0.249707 0.152893
0.416026 0.253976 0.155928
0.418091 0.250945 0.154338
0.411079 0.25067 0.143793
0.40224 0.241279 0.155128
0.403163 0.249138 0.157704
0.43655 0.253693 0.152027
0.428021 0.245526 0.157473
0.422068 0.257515 0.140474
0.427572 0.255817 0.143222
0.43148 0.240785 0.154708
0.422496 0.250465 0.151708
0.452494 0.25511 0.140271
0.441486 0.258935 0.145699
0.458205 0.246005 0.151287
0.453284 0.252602 0.140363
0.442895 0.245482 0.158256
0.457928 0.256474 0.153301
0.476993 0.248443 0.150302
0.472735 0.24103 0.158093
0.465922 0.241325 0.141119
0.475159 0.255117 0.151778
0.463199 0.245361 0.152921
0.472932 0.246096 0.145272
0.488519 0.252656 0.145813
0.498642 0.241681 0.148172
0.480411 0.250336 0.146191
0.486496 0.253916 0.14794
0.482634 0.254546 0.152347
0.495602 0.259587 0.142125
0.518299 0.24874 0.147045
0.503098 0.246519 0.151566
0.500911 0.256122 0.150686
0.508028 0.246912 0.159325
0.51396 0.242462 0.158761
0.515657 0.246804 0.145352
0.525143 0.242814 0.14105
0.521758 0.257604 0.145053
0.537287 0.256169 0.157413
0.526908 0.250954 0.149245
0.53225 0.253364 0.158522
0.538204 0.24735 0.148668
0.54688 0.24204 0.14958
0.554707 0.25841 0.142156
0.555498 0.259103 0.151564
0.559601 0.252516 0.147404
0.547766 0.244574 0.146769
0.551789 0.241615 0.157674
0.572891 0.255881 0.152533
0.571409 0.245569 0.14453
0.57136 0.254138 0.155991
0.567506 0.248595 0.153776
0.574166 0.252866 0.153284
0.577654 0.255212 0.159482
0.58123 0.244429 0.140341
0.598107 0.253939 0.145149
0.587632 0.25225 0.145256
0.583943 0.251489 0.150367
0.591503 0.243939 0.146677
0.58605 0.259615 0.141219
0.604965 0.242638 0.151723
0.606612 0.243014 0.153433
0.611311 0.244473 0.141566
0.606432 0.24918 0.159049
0.607289 0.253127 0.146459
0.605922 0.259325 0.154853
0.0874868 0.279244 0.142711
0.081232 0.278539 0.151419
0.0924699 0.274372 0.156216
0.0940326 0.270812 0.158428
0.0902842 0.267088 0.153033
0.0983167 0.265766 0.152764
0.115653 0.278177 0.141091
0.113541 0.271243 0.157364
0.113056 0.279286 0.15198
0.113144 0.271594 0.141634
0.117237 0.27411 0.159021
0.113 0.26286 0.159388
0.126143 0.273139 0.157248
0.123731 0.275329 0.14381
0.13246 0.26099 0.145982
0.138087 0.271941 0.151475
0.126966 0.269571 0.150568
0.127173 0.262296 0.14319
0.141983 0.277663 0.152908
0.151156 0.277088 0.144465
0.14025 0.27936 0.143508
0.15621 0.267915 0.159555
0.143281 0.278313 0.149535
0.143265 0.260994 0.142125
0.173807 0.273532 0.148549
0.16572 0.271909 0.142102
0.175247 0.261229 0.144369
0.179592 0.262485 0.156776
0.167437 0.270883 0.145343
0.168925 0.273611 0.158791
0.193584 0.264523 0.154588
0.190719 0.278414 0.157126
0.193658 0.270336 0.151621
0.186134 0.278941 0.14965
0.18258 0.268423 0.146012
0.187913 0.265562 0.15411
0.219518 0.263502 0.151383
0.217859 0.278238 0.143549
0.203069 0.277071 0.140866
0.201984 0.262021 0.154234
0.215124 0.267683 0.145609
0.219242 0.275818 0.153252
0.231725 0.277911 0.152306
0.2249 0.261007 0.152236
0.237483 0.272219 0.158666
0.233426 0.275495 0.147267
0.231131 0.276255 0.145005
0.239302 0.260341 0.146195
0.257948 0.266419 0.159198
0.255773 0.265713 0.154877
0.242021 0.265295 0.155517
0.257783 0.265941 0.143507
0.259471 0.262295 0.140556
0.253916 0.27272 0.144133
0.278177 0.263778 0.14701
0.270728 0.276799 0.148912
0.279778 0.260888 0.145602
0.268636 0.270845 0.158242
0.279248 0.26693 0.145231
0.277827 0.26477 0.147838
0.288711 0.27406 0.153522
0.281608 0.266547 0.154414
0.295088 0.262243 0.15673
0.299479 0.272725 0.145673
0.296349 0.276162 0.151682
0.299468 0.268867 0.144622
0.309406 0.261089 0.143974
0.306234 0.275048 0.152406
0.315673 0.263957 0.142064
0.317022 0.2672 0.143425
0.311905 0.278499 0.145538
0.305845 0.275747 0.146866
0.333737 0.271043 0.148881
0.339312 0.274604 0.145431
0.336813 0.273226 0.142381
0.331333 0.277552 0.147222
0.327105 0.262593 0.157192
0.323407 0.267021 0.152743
0.356169 0.261784 0.158307
0.349457 0.273917 0.151387
0.351288 0.260283 0.153544
0.359063 0.276677 0.141356
0.357142 0.270997 0.148935
0.348463 0.267093 0.144761
0.378672 0.267004 0.150995
0.360992 0.268846 0.157435
0.372578 0.265787 0.154005
0.365253 0.278277 0.145045
0.36516 0.270944 0.151517
0.368168 0.264743 0.150856
0.381601 0.275249 0.159082
0.391228 0.2766 0.14043
0.399108 0.26709 0.144257
0.394862 0.277761 0.154253
0.385402 0.276059 0.158124
0.398547 0.26541 0.15138
0.418467 0.275049 0.158467
0.402892 0.275339 0.146093
0.405107 0.263122 0.140516
0.402007 0.270777 0.155953
0.401548 0.266337 0.14533
0.415915 0.261677 0.143562
0.424372 0.271428 0.141005
0.427577 0.273203 0.140903
0.427422 0.277202 0.141125
0.430366 0.276193 0.149508
0.432268 0.272809 0.150367
0.422329 0.278055 0.154304
0.442058 0.266389 0.144502
0.456659 0.267787 0.145603
0.448059 0.264876 0.147221
0.451846 0.260682 0.142646
0.453748 0.260654 0.157801
0.443356 0.267869 0.14148
0.460538 0.273302 0.144597
0.46476 0.277174 0.158047
0.472399 0.264546 0.147688
0.474373 0.263034 0.150691
0.466771 0.262969 0.148286
0.471518 0.265846 0.158516
0.492581 0.271102 0.159511
0.483495 0.263415 0.156888
0.482499 0.263054 0.148817
0.490753 0.263409 0.154665
0.496857 0.265242 0.151034
0.487504 0.268626 0.140623
0.504038 0.272365 0.147036
0.518296 0.272563 0.156937
0.502085 0.265989 0.142864
0.517677 0.279499 0.146278
0.502438 0.278381 0.14952
0.514634 0.279414 0.142852
0.530974 0.262271 0.159288
0.526846 0.264545 0.155899
0.529557 0.26657 0.140927
0.525899 0.266204 0.156421
0.530757 0.264046 0.144472
0.528245 0.266775 0.152353
0.551114 0.278703 0.144889
0.551788 0.263469 0.149085
0.547406 0.271326 0.148346
0.546401 0.274274 0.152512
0.554182 0.274496 0.156397
0.553242 0.266752 0.143629
0.571616 0.264128 0.15702
0.561022 0.27799 0.145828
0.572404 0.269514 0.154274
0.560806 0.277786 0.149162
0.570949 0.274267 0.153226
0.571513 0.271349 0.152795
0.580713 0.272891 0.142464
0.596356 0.270969 0.156151
0.593821 0.262138 0.144261
0.598112 0.267009 0.140665
0.592151 0.279186 0.158342
0.58052 0.261786 0.155854
0.606539 0.276373 0.153152
0.604282 0.264471 0.141911
0.612875 0.265694 0.142427
0.60551 0.262365 0.156033
0.611855 0.261442 0.154555
0.604276 0.272608 0.148564
0.0880621 0.0904276 0.178974
0.080337 0.0907322 0.164608
0.0806793 0.0846267 0.168618
0.0808272 0.0841966 0.179674
0.0971744 0.0934942 0.175165
0.0820732 0.0994872 0.17979
0.119523 0.0828223 0.179627
0.113904 0.0858017 0.160377
0.107829 0.0962848 0.171667
0.101327 0.0806564 0.165574
0.10318 0.0838554 0.161726
0.112069 0.097799 0.179413
0.131155 0.0902744 0.176855
0.127073 0.087457 0.179688
0.138407 0.0881652 0.166219
0.127088 0.0860338 0.172419
0.126619 0.0889743 0.166043
0.12852 0.0870956 0.16643
0.141422 0.096935 0.167089
0.151885 0.085087 0.179501
0.147473 0.0955025 0.177838
0.142292 0.0834237 0.175388
0.153145 0.0940251 0.165381
0.157842 0.0980264 0.163101
0.16853 0.0876988 0.164265
0.168215 0.0966575 0.172866
0.176674 0.0893451 0.16423
0.160325 0.0909506 0.179
0.174198 0.0883682 0.16068
0.171275 0.094531 0.169015
0.195051 0.0949204 0.174974
0.185689 0.0930876 0.178867
0.190797 0.0875453 0.161597
0.188809 0.0937365 0.172824
0.188029 0.096826 0.171152
0.188971 0.0946872 0.176065
0.210939 0.088016 0.175912
0.219607 0.0969775 0.165389
0.211665 0.091787 0.171709
0.211521 0.0876519 0.177748
0.206895 0.0923796 0.16192
0.219683 0.0851276 0.170305
0.229416 0.0989267 0.168684
0.228764 0.086764 0.163074
0.231377 0.094933 0.170329
0.229509 0.0812695 0.164541
0.223438 0.0827782 0.179609
0.23776 0.0851876 0.176675
0.250747 0.0814435 0.166469
0.242719 0.0817268 0.166203
0.250988 0.0906736 0.177852
0.255565 0.0960677 0.171333
0.243989 0.0889533 0.165171
0.240278 0.0913154 0.167252
0.264683 0.0923306 0.16692
0.263527 0.0860487 0.176607
0.268948 0.0849031 0.16341
0.273209 0.0823108 0.160927
0.267472 0.0809268 0.177909
0.269 0.0882567 0.177438
0.284321 0.0966607 0.160831
0.29367 0.0956089 0.176866
0.28373 0.0922161 0.166529
0.294028 0.0804731 0.176659
0.297015 0.0865626 0.166455
0.291348 0.0852078 0.165217
0.307588 0.0850694 0.164909
0.309312 0.0858898 0.166364
0.318831 0.0959538 0.168281
0.308064 0.0986849 0.178602
0.309258 0.0826051 0.176064
0.317972 0.0969428 0.170687
0.324601 0.0851318 0.179347
0.33832 0.0957545 0.170309
0.325503 0.0874006 0.170951
0.324096 0.0849544 0.172913
0.338323 0.0942027 0.169714
0.321044 0.0886694 0.170447
0.355632 0.0864069 0.17644
0.359018 0.0965085 0.173189
0.352713 0.0831179 0.173933
0.35465 0.0937021 0.17245
0.340415 0.0869413 0.17411
0.359236 0.0956845 0.179647
0.371257 0.0993629 0.161234
0.369502 0.0958859 0.173179
0.371885 0.08737 0.177543
0.367022 0.0896068 0.179448
0.375559 0.0812764 0.178421
0.364083 0.0825204 0.177217
0.394009 0.0906859 0.176484
0.395521 0.0946397 0.170896
0.384001 0.089681 0.178586
0.398563 0.0983634 0.177011
0.383937 0.0929121 0.169047
0.395044 0.0874817 0.175009
0.407234 0.0804738 0.161587
0.405145 0.0891597 0.176093
0.414618 0.0921302 0.17604
0.408742 0.0881027 0.165624
0.409057 0.0955116 0.163254
0.417365 0.0979348 0.167388
0.438411 0.0993817 0.16835
0.438331 0.0982956 0.167972
0.434049 0.0888424 0.176437
0.426053 0.0829147 0.165389
0.420832 0.0808146 0.174114
0.432774 0.0883975 0.169085
0.453768 0.0902215 0.166211
0.448229 0.0848836 0.168757
0.455582 0.0836876 0.17775
0.454992 0.0934048 0.174301
0.456546 0.097755 0.167791
0.459097 0.0930019 0.176768
0.478684 0.0853467 0.176438
0.475796 0.0803785 0.164314
0.468053 0.0861192 0.178898
0.467999 0.0980164 0.164488
0.466819 0.0934331 0.177058
0.471947 0.0829644 0.168774
0.492225 0.0873268 0.17624
0.495019 0.0821929 0.164471
0.48483 0.091497 0.173118
0.496606 0.0965047 0.174697
0.493091 0.0852184 0.178684
0.483123 0.0804794 0.171998
0.511407 0.0915814 0.165478
0.513867 0.0828764 0.176119
0.51773 0.089139 0.173885
0.506181 0.089496 0.161344
0.50926 0.0833144 0.175195
0.519654 0.0819313 0.164694
0.525205 0.0934307 0.171878
0.539709 0.0967571 0.165918
0.528968 0.0910034 0.160898
0.526994 0.0871546 0.17582
0.533976 0.0834201 0.1788
0.537856 0.0937098 0.167163
0.545364 0.0881431 0.175051
0.550662 0.0834898 0.171865
0.552391 0.0884007 0.163706
0.555199 0.0989666 0.170385
0.548374 0.0967969 0.176656
0.556256 0.0933358 0.164447
0.573053 0.0922649 0.160643
0.575912 0.0857982 0.178292
0.567752 0.0836875 0.164588
0.569489 0.0919551 0.171997
0.572046 0.0924824 0.163643
0.577411 0.0943578 0.161846
0.595198 0.0867708 0.167968
0.582713 0.0931039 0.174721
0.591773 0.0968828 0.170672
0.588052 0.0955756 0.163852
0.595148 0.082661 0.16571
0.583532 0.096955 0.178891
0.607619 0.0833249 0.168667
0.619336 0.0808692 0.168338
0.612994 0.0874511 0.176289
0.604321 0.0911053 0.16219
0.609162 0.0804078 0.179319
0.601019 0.0996537 0.175148
0.0894153 0.10806 0.163869
0.0828008 0.118214 0.165942
0.0895905 0.100822 0.176241
0.0839574 0.115309 0.17892
0.0906356 0.102157 0.167525
0.0942592 0.103155 0.162069
0.10938 0.106489 0.160825
0.111834 0.103008 0.174768
0.118682 0.119724 0.178927
0.119431 0.109044 0.171173
0.106432 0.111699 0.174801
0.112028 0.119526 0.167126
0.122386 0.106017 0.172793
0.12856 0.117873 0.178671
0.136894 0.100687 0.176157
0.132233 0.106161 0.165258
0.125873 0.103244 0.167261
0.127085 0.100778 0.173389
0.155688 0.107647 0.170934
0.149338 0.105329 0.175589
0.158495 0.11555 0.167943
0.146801 0.108252 0.164047
0.147902 0.107792 0.160597
0.152107 0.116045 0.171501
0.178884 0.114887 0.16322
0.177391 0.104401 0.176306
0.177987 0.100638 0.163001
0.176697 0.108551 0.175788
0.163805 0.102258 0.17049
0.168141 0.111707 0.166154
0.197665 0.108404 0.165833
0.181987 0.114138 0.166411
0.195297 0.11649 0.170249
0.191119 0.113979 0.171473
0.185854 0.103863 0.162327
0.192863 0.101693 0.178111
0.216342 0.115406 0.172363
0.204014 0.106555 0.179198
0.204454 0.102365 0.173639
0.209086 0.101492 0.171167
0.209226 0.111978 0.162008
0.204961 0.104626 0.173229
0.224529 0.101814 0.171153
0.229317 0.110396 0.165509
0.235646 0.105555 0.174618
0.237437 0.111175 0.165001
0.235466 0.113349 0.161628
0.231123 0.103612 0.178205
0.253222 0.104955 0.173556
0.258988 0.107802 0.177823
0.25486 0.100669 0.166055
0.259761 0.107663 0.173565
0.244602 0.107888 0.168
0.240449 0.103686 0.17172
0.270632 0.113482 0.170295
0.279413 0.119423 0.179113
0.271669 0.107794 0.167503
0.276159 0.105658 0.178611
0.277857 0.102377 0.168917
0.268236 0.10551 0.165997
0.286959 0.111821 0.178144
0.285785 0.101476 0.174737
0.283785 0.100427 0.171892
0.29392 0.10063 0.162189
0.283331 0.114121 0.169714
0.294998 0.10875 0.161548
0.302068 0.106997 0.178901
0.307336 0.103573 0.166604
0.318569 0.112715 0.176671
0.302177 0.104771 0.170796
0.3191 0.116401 0.168987
0.316601 0.106001 0.169081
0.332718 0.105633 0.178856
0.332237 0.11126 0.171875
0.339295 0.108057 0.167963
0.336978 0.108295 0.170334
0.325964 0.116551 0.166409
0.337128 0.102009 0.167268
0.358763 0.106839 0.17941
0.345606 0.117941 0.16801
0.357993 0.106574 0.173542
0.341086 0.110657 0.168029
0.358468 0.107421 0.178902
0.356012 0.117457 0.171586
0.377385 0.101725 0.172666
0.37561 0.109152 0.170541
0.378378 0.108682 0.172305
0.370972 0.106904 0.162609
0.376725 0.106896 0.17095
0.360219 0.118954 0.173562
0.397405 0.113572 0.162678
0.388397 0.103518 0.16568
0.396296 0.104513 0.169746
0.38693 0.109649 0.167706
0.397676 0.11207 0.170378
0.383594 0.112924 0.162129
0.400245 0.1133 0.173229
0.418427 0.11945 0.168061
0.406974 0.110347 0.163685
0.405844 0.106114 0.178178
0.404011 0.116633 0.179259
0.418304 0.116789 0.163376
0.42794 0.11227 0.168906
0.429567 0.108657 0.165852
0.420899 0.104136 0.161662
0.429019 0.104849 0.172249
0.432405 0.101256 0.174797
0.429628 0.108774 0.178111
0.457604 0.110679 0.170907
0.45511 0.110481 0.161822
0.440958 0.119452 0.165027
0.441591 0.107134 0.1729
0.446178 0.116753 0.162917
0.453021 0.118781 0.161881
0.478803 0.103494 0.162792
0.476404 0.117531 0.176837
0.464166 0.117007 0.161795
0.479108 0.108502 0.160498
0.464299 0.107789 0.178069
0.478026 0.116912 0.170866
0.492749 0.106568 0.17116
0.492529 0.112483 0.16021
0.48118 0.115596 0.175486
0.496505 0.110207 0.167116
0.490737 0.108747 0.17521
0.481689 0.115593 0.168997
0.515524 0.119264 0.173186
0.503396 0.10631 0.175554
0.514584 0.11745 0.1764
0.502885 0.111103 0.174957
0.518446 0.103545 0.163816
0.518384 0.105837 0.164986
0.522915 0.100902 0.173131
0.537806 0.101572 0.177837
0.522659 0.107489 0.179021
0.524005 0.103132 0.163077
0.523462 0.112003 0.162353
0.537969 0.101079 0.177548
0.558547 0.110732 0.162265
0.552795 0.105222 0.172395
0.55629 0.113653 0.161158
0.542164 0.114231 0.172588
0.544709 0.118383 0.1787
0.546258 0.107826 0.161752
0.567901 0.118847 0.176038
0.567441 0.107072 0.177557
0.564177 0.103568 0.161062
0.569624 0.102542 0.167634
0.575948 0.116572 0.174132
0.563462 0.101353 0.166297
0.591483 0.113195 0.169082
0.582063 0.109354 0.17754
0.593777 0.103475 0.171143
0.580558 0.111182 0.160372
0.581126 0.119412 0.165596
0.595792 0.112867 0.16722
0.60126 0.113641 0.162571
0.618459 0.116902 0.161616
0.605949 0.100903 0.166082
0.604736 0.118361 0.172226
0.610359 0.113308 0.167219
0.600464 0.113229 0.160554
0.0995849 0.120391 0.172078
0.0993385 0.121119 0.162274
0.0971936 0.129336 0.162443
0.0884875 0.129291 0.172947
0.0923272 0.128871 0.166956
0.0834172 0.1392 0.170266
0.118341 0.129054 0.164475
0.115834 0.128677 0.177239
0.100385 0.135347 0.165261
0.101649 0.125203 0.175698
0.112546 0.133608 0.174157
0.117462 0.127255 0.166743
0.135674 0.126165 0.171908
0.138301 0.129678 0.162091
0.135521 0.123806 0.179148
0.135784 0.1213 0.165382
0.12853 0.136176 0.16824
0.128921 0.120966 0.16875
0.159788 0.128846 0.167377
0.143744 0.13767 0.176648
0.14857 0.129783 0.16971
0.141967 0.138621 0.164655
0.15568 0.132609 0.16521
0.145071 0.120341 0.173194
0.163868 0.135706 0.175419
0.163491 0.129248 0.170917
0.165101 0.12582 0.168897
0.169577 0.133797 0.175091
0.164367 0.131052 0.165619
0.170855 0.137597 0.170852
0.180495 0.135905 0.165205
0.182984 0.120968 0.17501
0.184907 0.12647 0.177284
0.187929 0.121393 0.168462
0.189684 0.133731 0.163372
0.196972 0.124887 0.17123
0.216479 0.133581 0.173712
0.215483 0.132879 0.162951
0.202308 0.124574 0.161362
0.209718 0.137649 0.172641
0.203728 0.127933 0.177198
0.216155 0.123203 0.174086
0.221606 0.120246 0.171749
0.228943 0.130402 0.166993
0.229768 0.131412 0.17785
0.227394 0.139485 0.161253
0.237787 0.126283 0.169251
0.230259 0.121208 0.169387
0.243914 0.122899 0.160643
0.241075 0.126688 0.162144
0.249635 0.134289 0.179526
0.253322 0.120615 0.164437
0.24064 0.134088 0.160406
0.252803 0.125043 0.178926
0.271849 0.132845 0.165453
0.276359 0.132417 0.167928
0.275313 0.133542 0.177127
0.263435 0.122468 0.169221
0.27891 0.130334 0.171762
0.275471 0.126719 0.177907
0.292111 0.126927 0.165995
0.299329 0.13311 0.174264
0.288316 0.13183 0.166753
0.291007 0.134481 0.17214
0.289227 0.128307 0.174139
0.286965 0.123073 0.171921
0.310338 0.133762 0.175029
0.306272 0.126337 0.162025
0.307305 0.126093 0.165482
0.303908 0.133465 0.173424
0.303739 0.121386 0.168013
0.31364 0.127843 0.167224
0.321213 0.136325 0.171674
0.333843 0.127616 0.163571
0.3222 0.120378 0.176555
0.330509 0.123905 0.160939
0.338256 0.128727 0.179565
0.332287 0.126613 0.178763
0.342897 0.120889 0.169417
0.350623 0.124593 0.168751
0.340709 0.127369 0.17155
0.357027 0.135183 0.170655
0.352109 0.120476 0.162822
0.343548 0.129425 0.164305
0.368198 0.12231 0.162146
0.361269 0.139608 0.179517
0.374249 0.125777 0.170757
0.378913 0.1342 0.163063
0.379727 0.127808 0.164867
0.367591 0.132364 0.170739
0.396602 0.122722 0.16831
0.394496 0.136105 0.17311
0.388625 0.130338 0.162743
0.385752 0.125228 0.16179
0.397866 0.137752 0.166909
0.381299 0.133111 0.162776
0.416849 0.129613 0.162101
0.418919 0.138558 0.16391
0.418397 0.131947 0.166746
0.412709 0.122843 0.160353
0.41061 0.13613 0.178516
0.403294 0.125453 0.171898
0.433871 0.137918 0.171183
0.420463 0.129162 0.169651
0.427628 0.123771 0.178568
0.430876 0.135939 0.166059
0.420848 0.135771 0.164258
0.420732 0.121769 0.178979
0.449656 0.130656 0.166967
0.443415 0.137872 0.164051
0.453646 0.136483 0.172264
0.457433 0.130242 0.17826
0.442941 0.124172 0.172587
0.456942 0.135363 0.175303
0.460233 0.126764 0.171446
0.474397 0.12751 0.173114
0.462386 0.126371 0.165183
0.470874 0.126968 0.166631
0.470525 0.134016 0.160864
0.474962 0.128643 0.178337
0.482947 0.135361 0.170827
0.494265 0.131088 0.17542
0.485566 0.128882 0.169769
0.491106 0.129674 0.172838
0.483707 0.126815 0.170573
0.496957 0.139591 0.1694
0.5022 0.138261 0.17798
0.506124 0.125904 0.171255
0.50326 0.126766 0.172893
0.512131 0.133507 0.17461
0.506582 0.131881 0.173585
0.511719 0.122109 0.179321
0.535062 0.132413 0.161874
0.527241 0.13443 0.172103
0.526676 0.134383 0.173039
0.532979 0.133211 0.178572
0.528636 0.121905 0.161759
0.520417 0.132654 0.163472
0.556208 0.138289 0.168517
0.547036 0.123147 0.165051
0.552491 0.139422 0.173471
0.553139 0.122113 0.17038
0.552842 0.126595 0.168698
0.543262 0.129429 0.166492
0.571716 0.122521 0.161533
0.572998 0.133489 0.17645
0.56529 0.124112 0.167501
0.566677 0.136911 0.173988
0.564431 0.131567 0.161101
0.578158 0.131893 0.176934
0.584921 0.138914 0.170804
0.597712 0.130746 0.175001
0.597015 0.125564 0.165579
0.593872 0.126545 0.162027
0.590785 0.137077 0.177977
0.598569 0.131173 0.178589
0.618008 0.129607 0.167268
0.618444 0.124437 0.177533
0.603292 0.123074 0.163371
0.61271 0.128099 0.178029
0.619156 0.12777 0.166238
0.610792 0.126842 0.162432
0.0950475 0.159273 0.161292
0.0991378 0.145629 0.167566
0.0815926 0.143158 0.178139
0.0947667 0.157223 0.16649
0.0936008 0.151688 0.163691
0.0851866 0.143164 0.160674
0.11298 0.154841 0.174549
0.101464 0.156955 0.164427
0.118023 0.15671 0.17023
0.103702 0.153143 0.160311
0.114999 0.154949 0.174537
0.103163 0.157412 0.160634
0.120947 0.152029 0.176815
0.133408 0.140829 0.165524
0.132371 0.152633 0.168964
0.128745 0.151065 0.172209
0.133246 0.14366 0.162719
0.133353 0.151262 0.176805
0.146301 0.140824 0.172157
0.150564 0.154823 0.161023
0.151332 0.157191 0.177482
0.149556 0.156341 0.173485
0.14143 0.145862 0.174538
0.14217 0.155359 0.161907
0.16881 0.153201 0.171402
0.17281 0.152257 0.178174
0.174312 0.159683 0.171212
0.178807 0.158804 0.172028
0.160745 0.155629 0.164589
0.168405 0.14905 0.17651
0.189451 0.155958 0.160527
0.18039 0.149579 0.173517
0.196384 0.144096 0.162277
0.190977 0.147144 0.167238
0.180914 0.145012 0.160976
0.196665 0.142296 0.172739
0.201569 0.151557 0.17356
0.208537 0.155914 0.173785
0.20324 0.153864 0.177248
0.209012 0.145823 0.170799
0.209103 0.146337 0.163388
0.211989 0.153886 0.176904
0.230361 0.159076 0.163964
0.234084 0.156144 0.163377
0.22201 0.149418 0.162144
0.231704 0.147438 0.163125
0.227263 0.140478 0.170349
0.236927 0.15866 0.178716
0.243402 0.141245 0.175447
0.248487 0.157863 0.170376
0.243394 0.158348 0.17966
0.251393 0.150742 0.160239
0.25884 0.148393 0.171042
0.240336 0.147619 0.172472
0.279535 0.15049 0.167723
0.275003 0.155489 0.176516
0.271336 0.145904 0.163961
0.273649 0.148714 0.174565
0.272679 0.154435 0.164099
0.268802 0.144016 0.17024
0.297049 0.144949 0.16093
0.28812 0.153851 0.172736
0.28404 0.147934 0.173167
0.288155 0.152304 0.16542
0.28362 0.142808 0.176454
0.298854 0.144303 0.177052
0.310369 0.157234 0.163893
0.302051 0.150775 0.178378
0.304964 0.146263 0.16245
0.316776 0.146167 0.165527
0.313459 0.147745 0.16432
0.311595 0.157179 0.166306
0.339103 0.14279 0.174062
0.338969 0.140418 0.173539
0.329213 0.14938 0.174901
0.324123 0.157051 0.168745
0.321873 0.152094 0.168518
0.335921 0.14775 0.164755
0.348324 0.15149 0.166505
0.344868 0.147682 0.178994
0.357676 0.145571 0.171238
0.342669 0.146928 0.1726
0.342668 0.147521 0.175432
0.342488 0.145161 0.171107
0.361636 0.158752 0.168215
0.367462 0.14204 0.175061
0.361374 0.153869 0.173308
0.371931 0.143904 0.16833
0.362863 0.159241 0.167609
0.369531 0.150561 0.174072
0.393818 0.159072 0.161671
0.382454 0.141359 0.178725
0.38526 0.142585 0.170442
0.397027 0.153983 0.171426
0.384971 0.156778 0.175274
0.384856 0.154452 0.177013
0.403272 0.159147 0.176774
0.408703 0.150453 0.175791
0.411736 0.152371 0.175216
0.401698 0.156191 0.172676
0.415274 0.1407 0.17315
0.417698 0.141016 0.168374
0.420743 0.145268 0.160769
0.435845 0.154755 0.162493
0.429018 0.149364 0.161622
0.42665 0.153955 0.169639
0.436376 0.157419 0.175545
0.438434 0.152642 0.171702
0.455231 0.151557 0.1657
0.455664 0.155644 0.177021
0.455248 0.154669 0.170202
0.444651 0.158445 0.173348
0.44539 0.15185 0.177558
0.456848 0.149331 0.172679
0.468591 0.146606 0.161897
0.461755 0.14808 0.170844
0.462036 0.155688 0.173636
0.479213 0.15401 0.166309
0.476185 0.140287 0.165322
0.460375 0.148714 0.160431
0.496073 0.152985 0.168689
0.493603 0.151583 0.17475
0.495147 0.15661 0.167067
0.492923 0.158749 0.17849
0.486836 0.142791 0.178521
0.488752 0.148737 0.179216
0.514239 0.15415 0.170823
0.501064 0.145977 0.162232
0.511518 0.143837 0.177855
0.518693 0.140216 0.162628
0.516729 0.140353 0.176379
0.515112 0.151223 0.175515
0.538006 0.158296 0.168658
0.524592 0.151008 0.171023
0.527097 0.151569 0.165384
0.539347 0.150963 0.164978
0.539765 0.143868 0.16055
0.5286 0.157962 0.178799
0.555854 0.141953 0.166807
0.546065 0.144445 0.163204
0.554773 0.146525 0.170395
0.543627 0.147333 0.170985
0.54244 0.149707 0.179357
0.557007 0.142126 0.167527
0.575559 0.153309 0.170854
0.566355 0.146412 0.170628
0.564247 0.15209 0.176715
0.571954 0.144376 0.1765
0.563382 0.158966 0.176665
0.56034 0.157151 0.162528
0.588963 0.156734 0.179233
0.582868 0.156902 0.17972
0.583935 0.14704 0.177452
0.5831 0.149613 0.173752
0.583617 0.151635 0.176151
0.58417 0.144371 0.174256
0.601798 0.141258 0.165841
0.609588 0.157447 0.179068
0.618088 0.143301 0.172524
0.615074 0.140522 0.165914
0.61515 0.14275 0.174238
0.611493 0.153196 0.171513
0.0978155 0.174154 0.178005
0.0912046 0.160933 0.160523
0.0983493 0.162124 0.1696
0.0842187 0.167286 0.170944
0.0994956 0.166685 0.179147
0.0937165 0.174293 0.164147
0.109245 0.160614 0.175091
0.110644 0.174183 0.17343
0.107264 0.161698 0.171612
0.115079 0.168353 0.161164
0.101484 0.170399 0.169197
0.103443 0.166867 0.175692
0.129308 0.178169 0.16415
0.132592 0.171096 0.162882
0.130643 0.166362 0.179676
0.137404 0.176261 0.174881
0.133029 0.166934 0.166785
0.124909 0.174841 0.160807
0.155654 0.177734 0.170467
0.140997 0.168806 0.172891
0.146281 0.169114 0.168502
0.145887 0.172352 0.178317
0.159465 0.167165 0.1716
0.148135 0.17327 0.165517
0.174905 0.177964 0.163028
0.175498 0.170992 0.178211
0.177437 0.16731 0.168596
0.167662 0.168659 0.171614
0.170216 0.1611 0.164344
0.172747 0.167576 0.179721
0.188374 0.173388 0.166325
0.195877 0.176677 0.170991
0.197224 0.177543 0.177497
0.19272 0.17403 0.177411
0.199421 0.177278 0.161512
0.188246 0.163534 0.167443
0.205998 0.168324 0.17807
0.215084 0.172641 0.16421
0.213609 0.176877 0.170581
0.215131 0.171003 0.16227
0.216826 0.171321 0.170346
0.20116 0.164769 0.166803
0.222698 0.160629 0.167656
0.224818 0.173847 0.172585
0.236954 0.161479 0.174282
0.237606 0.175706 0.171474
0.226269 0.175526 0.166286
0.233356 0.167394 0.165263
0.251848 0.167748 0.170723
0.248867 0.167314 0.162178
0.24749 0.165135 0.177769
0.249414 0.177049 0.163448
0.250986 0.16213 0.179075
0.254891 0.175005 0.176991
0.262478 0.166577 0.174234
0.260982 0.173767 0.160358
0.265846 0.16687 0.17251
0.263186 0.169238 0.165662
0.273811 0.160246 0.169776
0.260742 0.179007 0.168253
0.298706 0.172537 0.175903
0.290377 0.177533 0.177431
0.294359 0.17496 0.164902
0.292136 0.177608 0.171864
0.295927 0.175345 0.169317
0.29921 0.175154 0.175755
0.31362 0.179637 0.1641
0.304031 0.178324 0.166621
0.304111 0.160794 0.177365
0.307708 0.174047 0.167834
0.315966 0.169672 0.172148
0.30959 0.175623 0.160537
0.325286 0.160268 0.166581
0.328749 0.164499 0.161052
0.335223 0.167796 0.169758
0.332723 0.162916 0.175373
0.339197 0.170701 0.179398
0.325829 0.172912 0.176065
0.342718 0.16161 0.165155
0.351218 0.167184 0.163843
0.346201 0.165951 0.177525
0.340939 0.171338 0.17176
0.359559 0.168215 0.179756
0.348389 0.178785 0.166187
0.375839 0.166985 0.173874
0.378154 0.179127 0.164949
0.373109 0.167204 0.172689
0.366714 0.163267 0.169766
0.378357 0.177009 0.165096
0.366239 0.162138 0.178903
0.387182 0.171096 0.168429
0.383948 0.163301 0.1686
0.386279 0.169503 0.175058
0.385368 0.173071 0.160665
0.3908 0.164486 0.168815
0.387792 0.171821 0.17149
0.411359 0.162244 0.172285
0.406939 0.164946 0.178912
0.412194 0.160432 0.164586
0.403746 0.173808 0.165139
0.418979 0.161144 0.170246
0.410478 0.173896 0.160513
0.423135 0.17329 0.164465
0.427206 0.171531 0.162518
0.43635 0.168157 0.169622
0.430963 0.167624 0.169741
0.421786 0.175129 0.162551
0.435665 0.178581 0.160858
0.444851 0.163085 0.165204
0.440221 0.164423 0.177575
0.445612 0.178207 0.163429
0.442591 0.163731 0.165335
0.451604 0.173202 0.161851
0.449018 0.170507 0.174132
0.463792 0.172944 0.161954
0.47507 0.177588 0.167037
0.473619 0.169601 0.174589
0.472666 0.178704 0.167838
0.464311 0.167337 0.168964
0.472784 0.166383 0.162979
0.480238 0.174245 0.179599
0.495614 0.166779 0.163326
0.485127 0.163183 0.165539
0.486059 0.174405 0.175078
0.491509 0.172103 0.169672
0.498559 0.172215 0.173779
0.514128 0.176578 0.164916
0.50378 0.179343 0.171882
0.50414 0.1677 0.16227
0.50889 0.172145 0.178486
0.519605 0.178375 0.164396
0.519717 0.165599 0.176843
0.527963 0.162603 0.168243
0.528294 0.174352 0.177802
0.532112 0.179297 0.161667
0.534255 0.164914 0.162508
0.521547 0.17418 0.171684
0.525599 0.177405 0.179763
0.546304 0.167872 0.173644
0.554851 0.166601 0.172531
0.551872 0.172702 0.17722
0.541303 0.17381 0.168371
0.54865 0.179521 0.163382
0.546635 0.163924 0.179594
0.5773 0.164768 0.162526
0.574458 0.161895 0.178837
0.574329 0.172311 0.168714
0.577775 0.177113 0.17963
0.563824 0.174214 0.172321
0.575141 0.163449 0.172118
0.581647 0.167337 0.172864
