ply
format ascii 1.0
element vertex 1757
property float x
property float y
property float z
end_header
0.486144 0.0667278 0.634971
0.508676 0.0639097 0.639348
0.505037 0.0687998 0.628574
0.519759 0.0615998 0.63373
0.512377 0.0612041 0.62585
0.511927 0.0672491 0.632939
0.516274 0.0782826 0.628823
0.536109 0.0776233 0.627513
0.521874 0.068499 0.62445
0.53552 0.0781535 0.620571
0.537381 0.0753587 0.635378
0.533394 0.0702547 0.638437
0.523542 0.0716311 0.635204
0.556725 0.0626301 0.634297
0.557474 0.0646399 0.638607
0.559192 0.0630012 0.636113
0.555711 0.0659134 0.637179
0.551618 0.0703458 0.631764
0.551218 0.0622491 0.628008
0.578885 0.0628531 0.629181
0.569251 0.0687575 0.636144
0.577543 0.0752411 0.629131
0.573563 0.0631536 0.622826
0.571573 0.068267 0.635434
0.572042 0.072739 0.630333
0.582284 0.0687748 0.622018
0.590827 0.0634117 0.628243
0.583984 0.0751157 0.631971
0.581749 0.0614931 0.626666
0.590671 0.0722604 0.627799
0.592718 0.0777352 0.632758
0.610492 0.0661239 0.632799
0.604591 0.0622662 0.624231
0.603394 0.0717955 0.635234
0.602024 0.0625583 0.624427
0.617486 0.0647208 0.62979
0.617716 0.0608177 0.626949
0.637114 0.0715993 0.637741
0.620385 0.0667787 0.636293
0.637205 0.076773 0.634521
0.621001 0.0697207 0.627056
0.626286 0.0762675 0.633228
0.628911 0.0712115 0.621564
0.651373 0.0612318 0.637782
0.659397 0.0691136 0.626717
0.649158 0.0710031 0.634231
0.651292 0.063664 0.625781
0.645325 0.0681734 0.628572
0.645628 0.0785429 0.630706
0.678385 0.0722812 0.632994
0.673465 0.0713312 0.629713
0.679562 0.0709289 0.636961
0.668023 0.0764894 0.62809
0.663167 0.073438 0.630702
0.667667 0.0722484 0.639323
0.692988 0.063539 0.621657
0.691058 0.0659463 0.638005
0.695211 0.0680778 0.628526
0.694157 0.0704227 0.62186
0.69919 0.0793292 0.62185
0.687773 0.0632997 0.628364
0.716442 0.0724929 0.623657
0.707006 0.0713854 0.624596
0.713896 0.0682107 0.621655
0.718498 0.0792666 0.62978
0.706343 0.0649006 0.632042
0.701876 0.0611588 0.625706
0.736365 0.0731152 0.624086
0.738634 0.060819 0.6263
0.734869 0.0742404 0.622712
0.724554 0.074125 0.636898
0.728229 0.0796735 0.633859
0.729681 0.0691035 0.630811
0.746891 0.0797974 0.638448
0.752235 0.065717 0.62838
0.744862 0.0786566 0.623627
0.745375 0.0735466 0.627418
0.744906 0.0782401 0.624819
0.757369 0.0612855 0.623786
0.761134 0.062488 0.638403
0.767954 0.0636615 0.625193
0.770898 0.0769367 0.625373
0.766079 0.0638357 0.633389
0.772064 0.0743117 0.635872
0.772646 0.0615646 0.638249
0.786744 0.0690802 0.636137
0.7892 0.072111 0.630509
0.796133 0.0658973 0.633913
0.796691 0.0787319 0.620617
0.785848 0.0630134 0.634498
0.797862 0.0702076 0.620349
0.80881 0.0645969 0.620838
0.80228 0.0707452 0.627113
0.800861 0.0778132 0.639173
0.808375 0.0666597 0.638845
0.802887 0.0689406 0.626194
0.811643 0.0747085 0.631852
0.835048 0.0702896 0.627435
0.820843 0.0682113 0.629094
0.826317 0.0756104 0.622835
0.82825 0.0670659 0.621277
0.823823 0.0769742 0.635397
0.832988 0.0627039 0.629274
0.846053 0.0755773 0.625704
0.840893 0.0704537 0.622272
0.851804 0.0680995 0.625164
0.843418 0.0636716 0.624899
0.850886 0.0679395 0.636247
0.853182 0.0774972 0.638106
0.132145 0.0853421 0.637562
0.120769 0.0988418 0.63498
0.120369 0.0962911 0.62121
0.138718 0.0873021 0.638527
0.127833 0.0843421 0.630474
0.137698 0.0913795 0.620491
0.14091 0.0856502 0.636235
0.151439 0.0961176 0.633236
0.141099 0.0817756 0.637306
0.150467 0.0959195 0.63085
0.148223 0.0993596 0.624825
0.156251 0.0870929 0.624477
0.169521 0.0979811 0.630725
0.165921 0.0945875 0.631746
0.173183 0.0932641 0.621845
0.162845 0.0952751 0.631031
0.172224 0.0933373 0.621374
0.178441 0.0971906 0.622308
0.188135 0.0919011 0.635505
0.190674 0.0922839 0.634712
0.18891 0.091446 0.639799
0.191445 0.0952235 0.622143
0.199123 0.0976968 0.631628
0.186641 0.0956847 0.627845
0.204074 0.0870898 0.637942
0.206352 0.0907458 0.638229
0.210988 0.0927053 0.634364
0.200508 0.0871217 0.638742
0.217562 0.0919788 0.628526
0.212005 0.0942182 0.632365
0.235099 0.0857269 0.623644
0.234908 0.081347 0.633704
0.233625 0.0934829 0.63673
0.224535 0.0876064 0.625262
0.238549 0.0876195 0.633013
0.228914 0.099136 0.633621
0.257369 0.0972331 0.637859
0.249738 0.0813914 0.636345
0.259646 0.0819955 0.621096
0.241103 0.085029 0.63516
0.241349 0.0950702 0.629093
0.248573 0.0930309 0.624285
0.261027 0.0892853 0.624729
0.266773 0.0969982 0.636383
0.263221 0.0918354 0.621704
0.268363 0.0810768 0.636761
0.263343 0.0991006 0.632742
0.263918 0.087788 0.62573
0.291866 0.0950966 0.63712
0.29748 0.0872905 0.620476
0.280428 0.0914465 0.632845
0.286503 0.0987262 0.632177
0.293907 0.0932301 0.629635
0.281348 0.0949912 0.624979
0.3153 0.0876881 0.623885
0.317028 0.0847013 0.628893
0.319788 0.0972375 0.630995
0.300245 0.0997761 0.630476
0.306713 0.0990094 0.634999
0.311152 0.0852192 0.623623
0.331518 0.0863214 0.628051
0.322952 0.0810148 0.634136
0.326641 0.0943766 0.638519
0.323589 0.0887712 0.621831
0.331879 0.0906978 0.62061
0.337215 0.0846168 0.637301
0.351841 0.0982878 0.632965
0.341309 0.0927648 0.631452
0.348156 0.0940057 0.629406
0.348515 0.0970664 0.630803
0.357397 0.0989468 0.620967
0.354649 0.0975051 0.626866
0.367501 0.0972809 0.625633
0.364488 0.0895697 0.620976
0.372365 0.0982591 0.638021
0.375738 0.0931244 0.62325
0.370856 0.0934296 0.623228
0.372087 0.0832707 0.628188
0.380639 0.0855619 0.626671
0.392083 0.080798 0.633017
0.397891 0.0936053 0.628702
0.389568 0.0828619 0.625718
0.398274 0.0959154 0.636144
0.395344 0.0930829 0.627908
0.404507 0.0830106 0.629495
0.40175 0.0929009 0.622572
0.410365 0.0981726 0.63291
0.409012 0.0850498 0.639674
0.411736 0.0969404 0.622291
0.411405 0.0919644 0.639668
0.43657 0.0857333 0.623745
0.436403 0.0889785 0.6284
0.429294 0.0960934 0.628289
0.432415 0.0857502 0.631821
0.426796 0.095731 0.629444
0.438686 0.0951046 0.625501
0.44192 0.0815372 0.63813
0.451893 0.0833062 0.637664
0.444724 0.0946615 0.627975
0.449783 0.090713 0.636849
0.44163 0.0913697 0.629625
0.44192 0.0988229 0.623401
0.468682 0.0848359 0.633115
0.47796 0.0974592 0.631359
0.476364 0.0945208 0.621074
0.467426 0.083105 0.627947
0.471324 0.0831816 0.626843
0.470847 0.0925441 0.62091
0.498066 0.0906093 0.636315
0.482666 0.0897842 0.63554
0.49907 0.0996543 0.632296
0.481206 0.093144 0.62051
0.494358 0.0876493 0.624261
0.484739 0.0829045 0.631482
0.503575 0.0883027 0.63312
0.518212 0.0952678 0.634568
0.507933 0.0989755 0.630217
0.510448 0.0813238 0.623017
0.519005 0.0869544 0.626256
0.510774 0.0846196 0.629208
0.524769 0.0978555 0.638226
0.534866 0.0941796 0.63594
0.52269 0.0871174 0.625943
0.521643 0.0892237 0.626355
0.5307 0.0833678 0.630597
0.526641 0.0832044 0.623912
0.542078 0.0941955 0.624842
0.552008 0.0902484 0.624941
0.542507 0.0847781 0.62097
0.548734 0.084716 0.631326
0.550249 0.0855398 0.635634
0.559172 0.0932811 0.622983
0.564356 0.089269 0.639097
0.561105 0.0986199 0.639102
0.579619 0.0931159 0.639488
0.579578 0.0934175 0.627169
0.573942 0.0849715 0.62254
0.577544 0.0864027 0.638636
0.586623 0.0815334 0.635589
0.591663 0.0837571 0.634633
0.586725 0.0997108 0.6289
0.591308 0.0913105 0.636041
0.595685 0.0863663 0.636195
0.582904 0.0926144 0.623735
0.607102 0.0990175 0.632048
0.619154 0.0826118 0.622227
0.603298 0.0828585 0.632523
0.611774 0.0868627 0.629514
0.616359 0.0869744 0.630809
0.610496 0.0956981 0.625201
0.630357 0.090963 0.636953
0.63089 0.0810849 0.63768
0.635654 0.0854758 0.635204
0.626013 0.0925051 0.622306
0.626327 0.0954954 0.626913
0.637733 0.0912605 0.628918
0.657329 0.0962325 0.624232
0.650249 0.0942315 0.622093
0.655511 0.0988787 0.629457
0.641072 0.0853301 0.622249
0.655319 0.0910297 0.637606
0.641851 0.0874231 0.634523
0.678567 0.0969966 0.6247
0.674943 0.08122 0.627384
0.66287 0.0804519 0.636093
0.674592 0.0816561 0.635471
0.660513 0.0939264 0.625221
0.662615 0.0917659 0.628557
0.684427 0.0914342 0.627203
0.68794 0.0927743 0.625345
0.681485 0.083321 0.624128
0.697856 0.0944126 0.631092
0.692442 0.0869778 0.621681
0.69615 0.0821342 0.620392
0.716829 0.0867356 0.623051
0.701793 0.0879403 0.625639
0.718725 0.0804014 0.63728
0.713484 0.0896231 0.630225
0.716694 0.0847393 0.627945
0.709741 0.0879627 0.630792
0.737368 0.0873806 0.633831
0.725654 0.098652 0.623185
0.722338 0.0860226 0.634185
0.737327 0.0945818 0.630289
0.733501 0.0922843 0.627115
0.738069 0.0827432 0.620857
0.755422 0.0861545 0.620709
0.753698 0.0995335 0.620644
0.753714 0.0875604 0.62889
0.749648 0.082304 0.631593
0.741667 0.0892077 0.627544
0.759632 0.0850673 0.63611
0.762812 0.0916916 0.631149
0.776719 0.0858551 0.623274
0.779273 0.0847586 0.638069
0.767466 0.0855325 0.622995
0.773615 0.0882293 0.626761
0.774114 0.0991253 0.637161
0.784178 0.0924954 0.62867
0.792854 0.0822328 0.621046
0.785256 0.0832319 0.626742
0.792036 0.0813062 0.627815
0.785831 0.094027 0.628484
0.795143 0.0825573 0.624173
0.813748 0.0937947 0.639302
0.81159 0.0844235 0.629026
0.801676 0.0915057 0.631376
0.800799 0.0859959 0.627803
0.809577 0.0934181 0.63942
0.807098 0.0943394 0.622041
0.823975 0.0968224 0.621159
0.833649 0.0960638 0.62101
0.830945 0.0822615 0.621583
0.826276 0.0875955 0.634547
0.827868 0.0957305 0.628103
0.825102 0.0845338 0.626934
0.84104 0.0905596 0.638156
0.841821 0.0888051 0.624478
0.855414 0.0884286 0.636578
0.845086 0.081393 0.624377
0.856668 0.0972194 0.639123
0.855578 0.0832901 0.638126
0.864232 0.0812822 0.625455
0.871698 0.0978455 0.624996
0.866637 0.0960924 0.638802
0.868038 0.0960739 0.62697
0.860554 0.0980999 0.63545
0.867685 0.0953596 0.622078
0.116318 0.102372 0.639199
0.119543 0.114194 0.629375
0.11731 0.111785 0.632104
0.114447 0.113374 0.621759
0.114616 0.105066 0.630492
0.101829 0.117169 0.633377
0.122923 0.119342 0.630377
0.125537 0.104678 0.630571
0.135162 0.112537 0.639172
0.128249 0.119001 0.625971
0.133746 0.110876 0.639211
0.134618 0.118658 0.624353
0.147907 0.101004 0.623282
0.155719 0.103259 0.637531
0.159063 0.115945 0.621159
0.148255 0.108323 0.625897
0.146128 0.118653 0.628085
0.15038 0.104939 0.636354
0.166164 0.108917 0.636231
0.162235 0.105376 0.626423
0.163504 0.108309 0.622607
0.171604 0.10701 0.632636
0.161207 0.112364 0.627041
0.163322 0.101337 0.635519
0.197466 0.113449 0.620616
0.192483 0.114023 0.622711
0.196599 0.114991 0.631955
0.19881 0.105922 0.631203
0.184894 0.111963 0.625571
0.196007 0.119285 0.627313
0.2072 0.10574 0.630494
0.211792 0.106966 0.625121
0.206666 0.119615 0.626683
0.201198 0.119089 0.626932
0.209089 0.105922 0.624471
0.213073 0.102558 0.631827
0.23056 0.104316 0.62886
0.224859 0.11809 0.637581
0.22891 0.115258 0.629712
0.23066 0.101414 0.637465
0.226909 0.104182 0.633698
0.23269 0.115431 0.634343
0.240296 0.110511 0.627042
0.243375 0.103053 0.634177
0.244013 0.101036 0.634313
0.241632 0.116096 0.628897
0.249062 0.109288 0.638007
0.253486 0.116851 0.630556
0.26031 0.113088 0.629725
0.26605 0.115022 0.629701
0.264694 0.106351 0.624078
0.269182 0.10418 0.62282
0.278477 0.111051 0.636795
0.2731 0.104327 0.628141
0.287977 0.11072 0.639149
0.282523 0.103801 0.623641
0.285128 0.109552 0.622533
0.293668 0.101556 0.63291
0.280891 0.11778 0.631182
0.298269 0.104266 0.627075
0.31502 0.115731 0.634416
0.302214 0.105348 0.622086
0.308964 0.111807 0.635576
0.311042 0.102721 0.629394
0.303487 0.118111 0.624882
0.311872 0.10705 0.628353
0.323169 0.103968 0.628177
0.325765 0.105969 0.620301
0.324371 0.119203 0.621374
0.322771 0.104781 0.637358
0.323467 0.114883 0.639014
0.322497 0.111704 0.635948
0.357894 0.116289 0.627311
0.347155 0.107422 0.632191
0.356788 0.105855 0.638062
0.345744 0.115045 0.621819
0.352243 0.105247 0.620903
0.340772 0.118306 0.620631
0.360751 0.116739 0.637923
0.361542 0.112331 0.636989
0.375172 0.102113 0.63405
0.36836 0.114661 0.633788
0.365122 0.110408 0.626119
0.362717 0.115048 0.628575
0.390322 0.111806 0.639698
0.387586 0.119176 0.622304
0.398996 0.118204 0.632651
0.394505 0.113981 0.627764
0.382595 0.111926 0.622477
0.383275 0.119087 0.633748
0.410334 0.108044 0.62658
0.401796 0.119629 0.625358
0.403021 0.102021 0.63763
0.412648 0.114364 0.636758
0.419601 0.111138 0.629009
0.405164 0.118067 0.636017
0.436507 0.111747 0.629197
0.427754 0.108497 0.632726
0.438348 0.103279 0.6236
0.430866 0.107866 0.622137
0.431978 0.113793 0.622595
0.43818 0.106988 0.625721
0.451997 0.118156 0.637957
0.457329 0.116893 0.638149
0.455576 0.118767 0.636922
0.442453 0.10236 0.636472
0.45193 0.105414 0.637535
0.449169 0.109608 0.629459
0.461154 0.105964 0.633451
0.466043 0.118334 0.627877
0.469509 0.114533 0.62439
0.47357 0.102751 0.634931
0.461466 0.116359 0.633964
0.465426 0.10808 0.632063
0.480694 0.10434 0.624028
0.482371 0.11488 0.625914
0.480756 0.10893 0.620574
0.494209 0.112601 0.635795
0.489537 0.114204 0.627471
0.483941 0.113997 0.622161
0.505125 0.108963 0.627844
0.504926 0.118512 0.636719
0.503676 0.111875 0.622164
0.518057 0.100342 0.637485
0.511272 0.116154 0.638051
0.507085 0.104666 0.624034
0.53838 0.117026 0.636461
0.526962 0.110276 0.620224
0.52109 0.100615 0.633374
0.529775 0.118514 0.626358
0.536612 0.115606 0.634481
0.526013 0.104778 0.635908
0.543129 0.103922 0.630349
0.54813 0.11598 0.626667
0.555839 0.113201 0.631578
0.556589 0.118587 0.625781
0.540385 0.108297 0.627562
0.548702 0.106957 0.620803
0.563789 0.112558 0.639356
0.577116 0.115675 0.63591
0.575776 0.107887 0.629096
0.574702 0.104767 0.636823
0.56169 0.111416 0.621533
0.566423 0.10726 0.636092
0.586461 0.111577 0.627451
0.584235 0.105064 0.623317
0.592137 0.104784 0.631167
0.598863 0.105931 0.637894
0.588881 0.105678 0.626542
0.591685 0.104403 0.622638
0.604167 0.114108 0.622681
0.616569 0.10031 0.621226
0.603351 0.102952 0.634988
0.611072 0.119543 0.625245
0.602677 0.106905 0.630383
0.610279 0.118668 0.634533
0.634434 0.100979 0.627205
0.629472 0.114582 0.62318
0.626673 0.103097 0.636555
0.627398 0.114242 0.621787
0.635867 0.100821 0.635624
0.631635 0.113347 0.624903
0.649362 0.112515 0.627118
0.659127 0.107471 0.634198
0.644588 0.111306 0.632345
0.645363 0.11683 0.626064
0.641814 0.104149 0.63773
0.649441 0.118498 0.620256
0.664058 0.10421 0.628204
0.674926 0.116125 0.629361
0.675518 0.119131 0.634922
0.677444 0.107836 0.623281
0.666419 0.110615 0.629102
0.674276 0.118514 0.623444
0.688557 0.112444 0.636745
0.687688 0.114162 0.631939
0.693742 0.102833 0.634805
0.690793 0.119186 0.638509
0.682711 0.116903 0.638132
0.696216 0.11593 0.632147
0.705619 0.100546 0.635573
0.712314 0.109378 0.636474
0.714423 0.11548 0.62237
0.705571 0.101809 0.63026
0.702906 0.105702 0.63239
0.708589 0.101888 0.623513
0.733653 0.10107 0.632068
0.723221 0.113388 0.634023
0.738044 0.10576 0.63624
0.732566 0.115461 0.629639
0.729624 0.106364 0.633895
0.739242 0.103116 0.638837
0.751299 0.101047 0.620621
0.754005 0.102768 0.623515
0.7475 0.102087 0.625544
0.75821 0.101787 0.628676
0.754492 0.112412 0.639787
0.755998 0.119759 0.632337
0.779133 0.117695 0.639474
0.773679 0.107971 0.626335
0.779053 0.119278 0.634927
0.773264 0.118987 0.624076
0.767388 0.111661 0.625937
0.763582 0.11128 0.630716
0.790498 0.113047 0.627506
0.789373 0.119345 0.639745
0.784257 0.112141 0.639196
0.786869 0.119125 0.629075
0.79527 0.106706 0.624993
0.783151 0.105356 0.63494
0.801332 0.106176 0.637842
0.803634 0.118004 0.634238
0.811989 0.118662 0.629128
0.812596 0.112477 0.621785
0.803757 0.116887 0.625489
0.817444 0.118195 0.627868
0.834128 0.110652 0.628706
0.823795 0.110959 0.626635
0.838451 0.104162 0.631681
0.835992 0.109248 0.625248
0.821292 0.106838 0.622374
0.82938 0.100628 0.627847
0.843435 0.114989 0.633622
0.8402 0.100611 0.63824
0.844844 0.109532 0.624386
0.856422 0.112942 0.633488
0.841222 0.101887 0.624459
0.844948 0.101238 0.622634
0.865464 0.102227 0.620303
0.876567 0.111529 0.635285
0.861617 0.106786 0.624433
0.864908 0.111396 0.630916
0.863676 0.110736 0.623261
0.866182 0.102612 0.629555
0.883966 0.101375 0.622114
0.886967 0.102418 0.636743
0.891163 0.114627 0.620487
0.886566 0.105157 0.63445
0.885731 0.101368 0.639284
0.884358 0.118631 0.628456
0.084433 0.128482 0.627033
0.0830676 0.121897 0.638333
0.0878341 0.137589 0.632463
0.097829 0.131699 0.639638
0.0963491 0.128868 0.628755
0.0995376 0.1286 0.622875
0.106391 0.12745 0.637437
0.103181 0.122341 0.620834
0.117967 0.135008 0.630649
0.106181 0.129211 0.63847
0.113216 0.133902 0.622407
0.111784 0.123043 0.623899
0.126981 0.137277 0.638461
0.124912 0.125747 0.63357
0.138933 0.137792 0.621135
0.121133 0.134525 0.624537
0.136282 0.133802 0.626757
0.126086 0.121079 0.628196
0.158288 0.12533 0.624302
0.14913 0.126484 0.62158
0.143704 0.12244 0.637939
0.15506 0.12277 0.622489
0.147692 0.132955 0.639527
0.15762 0.137453 0.620399
0.172929 0.126885 0.635065
0.164067 0.127387 0.620701
0.160301 0.121605 0.638685
0.162475 0.129077 0.621317
0.166143 0.129568 0.620714
0.179222 0.132297 0.626191
0.187719 0.124488 0.639165
0.195864 0.120595 0.639696
0.190438 0.139118 0.626451
0.183748 0.125983 0.629767
0.185243 0.123298 0.625708
0.195581 0.137564 0.637705
0.214476 0.131576 0.627537
0.202878 0.136311 0.636981
0.203615 0.127704 0.626583
0.214237 0.135183 0.620664
0.20838 0.130452 0.63324
0.216778 0.121876 0.625824
0.236005 0.124019 0.635632
0.222856 0.131865 0.638353
0.222519 0.136346 0.626466
0.231921 0.131692 0.629762
0.232936 0.12095 0.623888
0.23403 0.134189 0.627953
0.259025 0.138785 0.623838
0.258419 0.137081 0.625908
0.242991 0.129034 0.633483
0.242886 0.137709 0.623788
0.246698 0.124935 0.635097
0.258061 0.129134 0.623987
0.278026 0.126898 0.628791
0.263624 0.125447 0.639527
0.266815 0.126377 0.632528
0.260706 0.136198 0.624487
0.268577 0.13933 0.639137
0.266529 0.127623 0.628135
0.29361 0.127856 0.625981
0.282248 0.12663 0.633242
0.291921 0.132595 0.627829
0.295247 0.125241 0.633172
0.295849 0.137047 0.633117
0.280992 0.133802 0.639428
0.304837 0.120663 0.635109
0.314504 0.134763 0.621783
0.311056 0.122162 0.625124
0.311235 0.126991 0.624346
0.307654 0.134702 0.636431
0.315697 0.125441 0.624034
0.324121 0.126621 0.623241
0.338367 0.12264 0.632445
0.338937 0.127657 0.637918
0.328491 0.13246 0.633822
0.330695 0.13591 0.632724
0.338534 0.139669 0.637849
0.354772 0.134359 0.633104
0.358033 0.135815 0.626393
0.355658 0.136785 0.620316
0.348726 0.136517 0.637388
0.344963 0.125034 0.63791
0.353617 0.126216 0.639726
0.363952 0.129739 0.634168
0.37509 0.123506 0.639512
0.370384 0.132589 0.623831
0.363212 0.126844 0.638942
0.365435 0.122431 0.626171
0.368035 0.13876 0.635316
0.390927 0.121738 0.633344
0.38714 0.126014 0.621944
0.394722 0.13359 0.626068
0.396594 0.12926 0.633114
0.392952 0.125003 0.632163
0.381745 0.120312 0.62122
0.411343 0.123503 0.632419
0.419733 0.131957 0.621991
0.406161 0.139561 0.633805
0.412855 0.135699 0.620839
0.414629 0.13756 0.635449
0.404627 0.134132 0.622312
0.431767 0.124065 0.629017
0.426064 0.126959 0.638482
0.428881 0.126218 0.630448
0.429522 0.125228 0.639608
0.439401 0.129233 0.631976
0.429202 0.120331 0.633043
0.448525 0.131701 0.624854
0.441774 0.126489 0.635882
0.459206 0.139374 0.622515
0.45493 0.124476 0.636265
0.450309 0.130949 0.635206
0.457035 0.123937 0.632845
0.465678 0.128727 0.63561
0.47238 0.138025 0.624341
0.47397 0.133305 0.620374
0.473281 0.126967 0.629665
0.474218 0.133046 0.634727
0.462605 0.120234 0.634124
0.481871 0.125366 0.622485
0.495783 0.13667 0.625949
0.498594 0.120562 0.626111
0.482062 0.127409 0.629683
0.482932 0.137391 0.62676
0.499245 0.126426 0.635467
0.511661 0.127855 0.621276
0.51964 0.138853 0.633363
0.508599 0.136469 0.624176
0.505987 0.138145 0.635063
0.516308 0.132174 0.627097
0.513856 0.134078 0.633976
0.538561 0.122228 0.637683
0.525367 0.130954 0.622397
0.532365 0.133812 0.633117
0.522357 0.129067 0.626177
0.53058 0.126399 0.628264
0.52657 0.139001 0.633722
0.548009 0.121908 0.634744
0.549548 0.1219 0.622795
0.552743 0.139645 0.622343
0.557049 0.128043 0.635004
0.549192 0.137757 0.626891
0.548735 0.120836 0.622637
0.577814 0.129072 0.62892
0.570371 0.127074 0.637401
0.573589 0.137025 0.627066
0.563513 0.139174 0.631063
0.571122 0.124335 0.627298
0.576104 0.131607 0.628256
0.590719 0.123424 0.63084
0.583187 0.123203 0.632392
0.583198 0.130246 0.629532
0.595225 0.138973 0.636995
0.586135 0.135421 0.634476
0.583302 0.126601 0.635951
0.610554 0.131623 0.633901
0.605179 0.121509 0.624616
0.613061 0.13253 0.628793
0.61672 0.127127 0.627883
0.612138 0.138597 0.621547
0.606085 0.138507 0.626776
0.639102 0.135626 0.63081
0.631766 0.129554 0.627442
0.637658 0.134564 0.62386
0.638876 0.128965 0.631771
0.634401 0.128457 0.626175
0.635797 0.132549 0.624446
0.641199 0.120582 0.631492
0.655775 0.125212 0.623552
0.647934 0.132342 0.634649
0.64203 0.126654 0.629255
0.640402 0.131557 0.634142
0.654149 0.128478 0.626212
0.661749 0.128447 0.63759
0.671636 0.128339 0.630295
0.669318 0.134161 0.622709
0.666691 0.127175 0.625555
0.676656 0.122704 0.621596
0.665113 0.137447 0.622256
0.69455 0.123123 0.633681
0.688803 0.136134 0.62801
0.685239 0.128413 0.627788
0.68029 0.130911 0.627194
0.692874 0.121287 0.638603
0.68524 0.129379 0.628921
0.700203 0.123168 0.628845
0.712286 0.136234 0.629616
0.702148 0.122568 0.628754
0.717005 0.136378 0.625191
0.714926 0.123674 0.635998
0.718218 0.121424 0.632142
0.73446 0.135516 0.636816
0.720948 0.127445 0.63784
0.732072 0.126533 0.637013
0.730785 0.135608 0.639221
0.734682 0.127991 0.626801
0.730401 0.138339 0.628838
0.759583 0.137763 0.629488
0.752817 0.120503 0.639492
0.741599 0.132508 0.634755
0.743609 0.124661 0.633972
0.751625 0.1285 0.634417
0.756068 0.131949 0.622309
0.767914 0.124033 0.635814
0.766875 0.13403 0.633652
0.769727 0.126358 0.626189
0.764126 0.128791 0.624035
0.77228 0.132392 0.620486
0.763115 0.125983 0.636648
0.796887 0.128592 0.633951
0.781745 0.129394 0.626619
0.798581 0.128953 0.635347
0.796485 0.123636 0.623805
0.790276 0.123715 0.620257
0.791019 0.126258 0.636729
0.810235 0.125451 0.626668
0.814455 0.131203 0.628741
0.815349 0.139383 0.628991
0.815138 0.122075 0.6292
0.801263 0.121559 0.626987
0.817371 0.121551 0.635147
0.83887 0.133497 0.630716
0.82296 0.138834 0.627026
0.835882 0.129381 0.636161
0.837352 0.121505 0.623723
0.825969 0.121508 0.622711
0.83431 0.123858 0.634456
0.856102 0.130559 0.634744
0.853163 0.12562 0.633731
0.852957 0.126891 0.622597
0.855889 0.135502 0.631566
0.856771 0.120646 0.637574
0.841953 0.135594 0.639362
0.865364 0.133375 0.621668
0.861112 0.12824 0.635188
0.87551 0.124239 0.637471
0.875513 0.127368 0.631211
0.866768 0.125947 0.633709
0.872058 0.131495 0.63216
0.880485 0.125729 0.630852
0.892662 0.130375 0.632892
0.895115 0.123408 0.637713
0.89838 0.13642 0.627387
0.897877 0.134663 0.636813
0.890715 0.123406 0.628668
0.908028 0.133555 0.639135
0.908387 0.138583 0.627896
0.914038 0.12118 0.637414
0.906493 0.13926 0.623277
0.907403 0.128636 0.637969
0.903861 0.124849 0.621505
0.0816979 0.152325 0.620342
0.0935711 0.1447 0.63359
0.0981012 0.145373 0.625916
0.0909517 0.15536 0.630799
0.085577 0.151218 0.622764
0.0927053 0.140291 0.628458
0.118146 0.153525 0.620613
0.104837 0.155964 0.625305
0.101322 0.156606 0.621806
0.116741 0.152876 0.624837
0.110578 0.151878 0.629413
0.105872 0.159349 0.638494
0.122098 0.151976 0.62904
0.125548 0.157826 0.632357
0.120912 0.142567 0.634557
0.129548 0.147849 0.629407
0.132491 0.141504 0.620533
0.133521 0.157446 0.6327
0.148017 0.152688 0.632683
0.149262 0.146704 0.624571
0.157518 0.151822 0.62371
0.146371 0.148816 0.627531
0.14233 0.14381 0.63403
0.148884 0.140971 0.626799
0.166019 0.144913 0.63187
0.161117 0.157117 0.624357
0.167236 0.154488 0.631506
0.174247 0.143995 0.627398
0.17036 0.148432 0.634213
0.179448 0.158287 0.627605
0.184964 0.146817 0.638837
0.186599 0.154583 0.630708
0.182674 0.145048 0.63399
0.193677 0.142708 0.63135
0.194944 0.14156 0.637832
0.195194 0.156396 0.624293
0.21726 0.159492 0.631218
0.211916 0.147632 0.624806
0.205081 0.149382 0.636095
0.209315 0.151964 0.62223
0.203722 0.158154 0.630436
0.21644 0.149068 0.622857
0.22086 0.149619 0.623638
0.238595 0.141475 0.636306
0.232617 0.14443 0.620502
0.226464 0.149025 0.624757
0.223191 0.15884 0.63958
0.227712 0.153675 0.638003
0.258704 0.154145 0.623381
0.252351 0.150632 0.634874
0.257413 0.143018 0.625018
0.242242 0.155342 0.637101
0.250569 0.150475 0.633556
0.25847 0.145484 0.638092
0.277643 0.142268 0.626592
0.275777 0.141794 0.63734
0.273291 0.143955 0.631203
0.27574 0.142531 0.626135
0.260702 0.147156 0.626747
0.273203 0.151911 0.638989
0.286946 0.143038 0.629337
0.290619 0.143665 0.635966
0.283282 0.143194 0.62857
0.297685 0.142316 0.636942
0.297457 0.158982 0.637143
0.29121 0.143253 0.624505
0.30838 0.141194 0.632047
0.306317 0.141669 0.632991
0.318144 0.15381 0.6231
0.314775 0.152568 0.636006
0.305398 0.143842 0.622361
0.303012 0.155969 0.623973
0.334804 0.147197 0.62338
0.327092 0.156119 0.625019
0.338602 0.144814 0.621649
0.322366 0.159655 0.63087
0.328059 0.148766 0.626969
0.326256 0.159013 0.631419
0.341004 0.142298 0.634301
0.354905 0.157949 0.632413
0.342547 0.143603 0.62492
0.350658 0.141014 0.632584
0.355928 0.154497 0.626386
0.342445 0.148731 0.632005
0.366504 0.143896 0.638722
0.364466 0.150492 0.624176
0.362657 0.143194 0.637328
0.365421 0.15447 0.638643
0.370773 0.149252 0.636617
0.362378 0.157646 0.631866
0.387296 0.155945 0.637951
0.381412 0.156256 0.622902
0.385421 0.140481 0.631187
0.388322 0.151801 0.628693
0.383058 0.150575 0.633625
0.393063 0.143617 0.630782
0.401963 0.15397 0.631424
0.402324 0.143144 0.623236
0.409181 0.15281 0.633589
0.403816 0.156672 0.627532
0.411204 0.145832 0.63469
0.400618 0.151911 0.63236
0.434276 0.147292 0.635027
0.423346 0.142344 0.62115
0.422989 0.143373 0.621653
0.428375 0.149023 0.631023
0.434026 0.141123 0.626185
0.430351 0.154997 0.624697
0.441907 0.157354 0.625429
0.447519 0.150592 0.628965
0.441942 0.153361 0.638596
0.440345 0.142546 0.636934
0.44829 0.153262 0.624543
0.459154 0.155687 0.628901
0.477928 0.155415 0.62191
0.462383 0.151265 0.635787
0.468006 0.150648 0.639227
0.464701 0.147774 0.621426
0.478983 0.149034 0.632212
0.471419 0.146986 0.626035
0.48834 0.150697 0.624757
0.489781 0.159321 0.630259
0.498342 0.157214 0.632555
0.495912 0.144168 0.622702
0.488106 0.151145 0.632276
0.493835 0.150782 0.622818
0.502789 0.155872 0.621287
0.504923 0.141064 0.638745
0.505435 0.158614 0.630965
0.517206 0.142263 0.626289
0.516352 0.149352 0.63328
0.510797 0.1407 0.636497
0.534792 0.140528 0.633705
0.520426 0.153042 0.634829
0.539477 0.156069 0.631025
0.527914 0.14759 0.621877
0.524126 0.145576 0.622853
0.527668 0.157771 0.626486
0.552518 0.14966 0.623905
0.545923 0.15405 0.633732
0.554654 0.140755 0.638524
0.542093 0.140429 0.63345
0.547314 0.1456 0.622868
0.542087 0.14088 0.634804
0.569758 0.149133 0.634229
0.572543 0.151158 0.627283
0.57627 0.142624 0.637835
0.561437 0.156182 0.635631
0.57566 0.150589 0.630741
0.567491 0.154906 0.629413
0.595721 0.147872 0.621196
0.58401 0.156703 0.63179
0.596047 0.147852 0.633424
0.592562 0.152776 0.636958
0.591462 0.151208 0.638538
0.582296 0.145156 0.621511
0.619438 0.153902 0.629585
0.608414 0.14304 0.620959
0.615853 0.143894 0.622017
0.615479 0.159557 0.623184
0.603306 0.143064 0.624372
0.602582 0.141 0.622986
0.621235 0.14096 0.63057
0.637818 0.146991 0.636176
0.638809 0.15615 0.632724
0.623784 0.152775 0.625112
0.624369 0.155614 0.629362
0.635342 0.159274 0.624569
0.652634 0.149672 0.628865
0.653458 0.147793 0.637204
0.65465 0.144287 0.633392
0.656907 0.150305 0.629151
0.659568 0.153909 0.636098
0.642717 0.149443 0.62384
0.669233 0.144584 0.623979
0.66065 0.147681 0.628562
0.664605 0.152347 0.626722
0.661648 0.143137 0.633102
0.673648 0.146875 0.633196
0.67427 0.154518 0.636486
0.684307 0.141235 0.639005
0.685866 0.144033 0.637574
0.680793 0.156752 0.638197
0.687285 0.151762 0.62543
0.695601 0.157291 0.62882
0.699336 0.150875 0.62447
0.712997 0.141961 0.632075
0.709185 0.148118 0.622857
0.71224 0.146689 0.629698
0.70296 0.155043 0.626795
0.701935 0.144187 0.62519
0.704605 0.144125 0.638663
0.736178 0.140518 0.638621
0.723957 0.152576 0.637092
0.736 0.158596 0.623487
0.72858 0.148191 0.621015
0.732875 0.15494 0.634069
0.737757 0.153645 0.620575
0.741865 0.149468 0.636762
0.75331 0.148423 0.625681
0.741437 0.148287 0.620765
0.744259 0.147334 0.627829
0.742459 0.149091 0.634503
0.750654 0.152661 0.63351
0.764717 0.141908 0.627873
0.773216 0.154564 0.621862
0.770582 0.149521 0.620507
0.771704 0.144568 0.626433
0.76851 0.158618 0.62642
0.773341 0.143214 0.638338
0.798699 0.151488 0.632007
0.788864 0.153202 0.623253
0.78809 0.153804 0.62044
0.783556 0.156236 0.629303
0.787153 0.155259 0.634636
0.790615 0.153003 0.621908
0.8163 0.152797 0.638953
0.815826 0.152636 0.636273
0.805901 0.152287 0.63794
0.804224 0.152514 0.638014
0.809323 0.149268 0.621354
0.808315 0.159182 0.626554
0.821756 0.151372 0.622009
0.835993 0.158952 0.637517
0.823589 0.14754 0.634565
0.834182 0.157121 0.628069
0.833009 0.156016 0.623951
0.824626 0.142823 0.621131
0.859138 0.145225 0.631115
0.855832 0.158784 0.629663
0.856307 0.159625 0.631908
0.852448 0.14695 0.624824
0.848671 0.146671 0.628482
0.854276 0.142419 0.634219
0.872644 0.143026 0.636904
0.87099 0.14506 0.625772
0.860315 0.153075 0.627111
0.873307 0.152012 0.629392
0.875827 0.143845 0.626305
0.868481 0.152002 0.634739
0.89728 0.151375 0.624201
0.898939 0.15572 0.620468
0.895019 0.14883 0.62172
0.893861 0.140402 0.624474
0.891251 0.149163 0.633975
0.887631 0.144253 0.638642
0.91121 0.155625 0.621771
0.91632 0.150799 0.6294
0.916921 0.157794 0.632793
0.911651 0.143143 0.629761
0.916364 0.142744 0.637523
0.915923 0.149509 0.626894
0.223071 0.0209873 0.64882
0.227398 0.0288794 0.641703
0.229648 0.0333797 0.649368
0.22717 0.0304901 0.646123
0.237508 0.0243707 0.646417
0.231971 0.0257043 0.656856
0.24796 0.0280015 0.642746
0.245421 0.0383577 0.644136
0.255218 0.0254277 0.659521
0.25353 0.0322343 0.650342
0.242759 0.0219213 0.648841
0.246817 0.0253827 0.645674
0.272251 0.0217576 0.647737
0.273637 0.0380492 0.646623
0.261797 0.0308009 0.654071
0.273578 0.0314402 0.643596
0.261533 0.0305773 0.658831
0.261224 0.022678 0.651648
0.298035 0.0302469 0.644118
0.295528 0.036375 0.658422
0.295833 0.0312977 0.644077
0.295233 0.0304429 0.641938
0.289036 0.0329684 0.654399
0.2994 0.0333926 0.653302
0.303853 0.037562 0.645168
0.301377 0.0297086 0.656637
0.316373 0.0258289 0.641731
0.318376 0.0279671 0.654922
0.304932 0.0216522 0.654153
0.302266 0.0215251 0.647825
0.32611 0.0278668 0.640703
0.333583 0.0320706 0.643417
0.323634 0.0206072 0.659214
0.332173 0.0224571 0.650216
0.339095 0.0339643 0.657603
0.326153 0.0293739 0.657931
0.359547 0.0346171 0.648027
0.346506 0.0240741 0.654483
0.343859 0.0221819 0.642797
0.343728 0.0261715 0.65267
0.342484 0.0360303 0.650206
0.341166 0.0308893 0.652128
0.374478 0.0211081 0.642773
0.372846 0.0209732 0.658922
0.361128 0.038204 0.644893
0.36851 0.0221567 0.655116
0.370854 0.0354923 0.654003
0.365844 0.0341536 0.656298
0.399795 0.0339715 0.641213
0.383091 0.028584 0.648791
0.387079 0.0376372 0.657397
0.398929 0.0324135 0.658538
0.388817 0.0314572 0.641324
0.385813 0.0220597 0.651563
0.408169 0.0220115 0.643708
0.417176 0.0293467 0.64292
0.405658 0.0341339 0.648444
0.417772 0.0372206 0.653901
0.406731 0.0238585 0.653931
0.406387 0.0233236 0.657429
0.436218 0.037441 0.654582
0.435819 0.0373638 0.65159
0.439109 0.0272713 0.642112
0.427496 0.0236795 0.6428
0.423472 0.0357744 0.64264
0.434104 0.0377553 0.643222
0.44821 0.0230407 0.649524
0.454175 0.0287263 0.650594
0.44659 0.024185 0.646568
0.445901 0.0388822 0.651067
0.447447 0.0288733 0.658133
0.442843 0.0368991 0.642826
0.462406 0.030713 0.652379
0.471095 0.0277962 0.656623
0.478777 0.0351957 0.640592
0.46293 0.0332541 0.65924
0.474036 0.0389434 0.643639
0.469516 0.0213315 0.6521
0.484652 0.0250008 0.658452
0.496192 0.0375492 0.647339
0.487235 0.0309567 0.650723
0.485706 0.0335457 0.647725
0.481817 0.0314445 0.652866
0.48101 0.0370386 0.657456
0.515132 0.03356 0.655146
0.518508 0.0217552 0.65415
0.517474 0.0257826 0.652608
0.514888 0.0387303 0.65497
0.518975 0.0367707 0.647291
0.511224 0.0223758 0.648557
0.523507 0.0207339 0.64732
0.53889 0.0288173 0.646933
0.531234 0.0202194 0.654886
0.523221 0.0211356 0.655964
0.53937 0.0283989 0.653497
0.537034 0.0232239 0.642151
0.552934 0.035267 0.641322
0.545076 0.0222376 0.643759
0.543161 0.0246992 0.644352
0.554602 0.0243199 0.647025
0.546496 0.0304962 0.648167
0.553212 0.0349312 0.659327
0.572117 0.0390933 0.657205
0.560688 0.0305459 0.642769
0.569641 0.0394724 0.648928
0.564544 0.0395743 0.654254
0.561646 0.0389922 0.659798
0.561661 0.0344678 0.654396
0.594478 0.0324765 0.644836
0.598768 0.0224849 0.658642
0.599205 0.0371598 0.646178
0.584974 0.0279848 0.659085
0.592141 0.0256255 0.651336
0.580368 0.0204106 0.645938
0.615476 0.0370005 0.641535
0.619367 0.0309475 0.643513
0.616464 0.0371426 0.649354
0.602821 0.0314408 0.65255
0.614018 0.0274322 0.658195
0.61657 0.0311792 0.643416
0.634908 0.0295066 0.645778
0.638738 0.0354771 0.640238
0.628589 0.0232962 0.641433
0.634154 0.0225933 0.648365
0.637972 0.0283301 0.640325
0.63465 0.0244898 0.644194
0.653128 0.0246298 0.657002
0.657539 0.0355219 0.649766
0.643308 0.0339946 0.646975
0.641926 0.0237301 0.640515
0.647818 0.0242854 0.649508
0.651111 0.0208512 0.649245
0.67943 0.0350304 0.655604
0.674958 0.0377818 0.647767
0.66842 0.0380114 0.64507
0.665385 0.0234627 0.651286
0.671574 0.0381944 0.647342
0.670719 0.0386186 0.65108
0.696063 0.0205509 0.645296
0.693194 0.0256833 0.658781
0.686795 0.0354947 0.658785
0.68891 0.0265767 0.651767
0.699399 0.0244341 0.647339
0.684333 0.03405 0.652472
0.712611 0.0241629 0.644074
0.716044 0.0206226 0.64697
0.71192 0.0316678 0.649568
0.7074 0.0372342 0.657392
0.714164 0.0269489 0.655878
0.71907 0.0316925 0.659017
0.730684 0.0326581 0.654511
0.724222 0.0377699 0.643211
0.731541 0.0243065 0.659589
0.727829 0.0310731 0.659612
0.739712 0.0385104 0.648962
0.730305 0.0360026 0.654981
0.741311 0.0363268 0.642641
0.752187 0.0285424 0.655045
0.746173 0.0349471 0.646507
0.751882 0.0321178 0.656526
0.742577 0.027949 0.646652
0.747068 0.0315369 0.641133
0.773955 0.0256971 0.645799
0.770619 0.0313677 0.643356
0.776162 0.0210267 0.645955
0.762692 0.0304554 0.654513
0.775158 0.0306725 0.646024
0.772845 0.0223427 0.648679
0.191959 0.0473781 0.648465
0.186477 0.0579167 0.656561
0.180479 0.0594569 0.649671
0.193006 0.0446651 0.641691
0.18417 0.05845 0.646491
0.192779 0.0571501 0.651242
0.21234 0.0452615 0.6475
0.209594 0.0471282 0.656683
0.21581 0.0437701 0.640761
0.208517 0.0586011 0.644551
0.201162 0.0494715 0.658409
0.202466 0.0542525 0.650985
0.235813 0.047157 0.653099
0.22547 0.0416125 0.655754
0.236835 0.0535162 0.655789
0.2241 0.0586415 0.657018
0.227545 0.0522181 0.644332
0.226266 0.0407494 0.650861
0.257867 0.0532512 0.641033
0.258817 0.0413136 0.656941
0.241476 0.0408096 0.654997
0.243453 0.0565639 0.644864
0.245168 0.0446997 0.645335
0.244166 0.0491403 0.648174
0.27308 0.0430691 0.653074
0.261754 0.0546938 0.644745
0.276776 0.0527323 0.649409
0.261885 0.0514011 0.650208
0.276041 0.0487646 0.644304
0.266096 0.0447183 0.653483
0.280568 0.0510012 0.643317
0.28438 0.0525035 0.657859
0.282631 0.0593798 0.645434
0.288435 0.0555152 0.649746
0.286508 0.053982 0.642075
0.288661 0.0513912 0.645932
0.30447 0.0489715 0.648193
0.304729 0.0425632 0.659492
0.308474 0.0561224 0.657994
0.310273 0.0417744 0.655035
0.318493 0.0574244 0.645905
0.309388 0.0478886 0.652021
0.332403 0.0515267 0.641077
0.337157 0.0414487 0.64762
0.331267 0.0519623 0.656552
0.325312 0.0504241 0.655234
0.321912 0.0543103 0.643268
0.327944 0.0480245 0.653079
0.357484 0.0534437 0.641961
0.34487 0.0555765 0.64676
0.342544 0.0416389 0.649256
0.345182 0.0592104 0.653665
0.352192 0.0495241 0.645279
0.35477 0.0585792 0.659724
0.370899 0.047807 0.655068
0.373754 0.0489554 0.646221
0.369585 0.0443127 0.655443
0.368806 0.0540594 0.656887
0.368705 0.0525317 0.640371
0.373948 0.0430928 0.642044
0.38379 0.0507771 0.648501
0.380256 0.0514151 0.656157
0.389016 0.0536357 0.651042
0.397801 0.0457462 0.659639
0.393668 0.0403121 0.65413
0.395899 0.0402914 0.653813
0.404169 0.0491868 0.645832
0.400217 0.0447401 0.64125
0.415164 0.0471019 0.642886
0.403179 0.0426869 0.644533
0.401843 0.0413607 0.643279
0.408964 0.0488138 0.648839
0.432058 0.0458814 0.651279
0.430307 0.0511485 0.641533
0.422447 0.0446706 0.644995
0.437209 0.0496104 0.65903
0.432314 0.0403842 0.651726
0.430291 0.0471383 0.656654
0.458046 0.0503917 0.64737
0.447783 0.0550648 0.643823
0.454561 0.0533162 0.648835
0.44231 0.0442004 0.650707
0.442529 0.0432965 0.658546
0.452732 0.0452352 0.641151
0.460819 0.0438794 0.647252
0.473501 0.0438918 0.646885
0.46694 0.0444817 0.652228
0.470912 0.0594273 0.642138
0.473806 0.049352 0.65104
0.470785 0.0458391 0.650892
0.486645 0.0546556 0.653718
0.485862 0.0405596 0.653147
0.49393 0.0461613 0.642068
0.498701 0.041598 0.640625
0.488039 0.0527378 0.645215
0.499283 0.0432761 0.656078
0.506565 0.0430746 0.644134
0.501993 0.0575311 0.659313
0.502579 0.0490376 0.64576
0.505075 0.0462674 0.654002
0.515794 0.0587385 0.650829
0.502852 0.0418747 0.654494
0.520372 0.0549526 0.657463
0.529123 0.0505818 0.641535
0.538036 0.0564933 0.654301
0.527226 0.0461977 0.645495
0.53796 0.0569122 0.652821
0.520965 0.051898 0.643532
0.542069 0.0562824 0.648723
0.545036 0.0411621 0.649412
0.551052 0.0538412 0.64528
0.543832 0.0545593 0.644759
0.557349 0.0530036 0.644873
0.554384 0.0576358 0.640474
0.572844 0.0451319 0.645768
0.561599 0.045482 0.659048
0.572844 0.056218 0.657982
0.575581 0.0424399 0.641264
0.571909 0.0468186 0.648958
0.564003 0.043927 0.648502
0.58331 0.0564502 0.656368
0.58062 0.0521988 0.656026
0.591225 0.0419259 0.649138
0.587235 0.056745 0.643483
0.597606 0.0508569 0.651891
0.584872 0.0449116 0.64315
0.605027 0.0414444 0.653518
0.616956 0.0507698 0.641431
0.617216 0.0418058 0.657084
0.615028 0.045102 0.649093
0.607865 0.0590491 0.642648
0.613468 0.048972 0.658236
0.622812 0.0589222 0.652149
0.626394 0.0458517 0.642244
0.623759 0.0432094 0.655943
0.63119 0.0497417 0.643695
0.631874 0.0596977 0.646097
0.636196 0.0519164 0.655362
0.644571 0.0513949 0.658331
0.658538 0.0517616 0.647894
0.648507 0.0509915 0.64188
0.654744 0.0423656 0.647319
0.650488 0.0482701 0.647349
0.658422 0.0460021 0.642012
0.6784 0.0555535 0.64126
0.669442 0.044317 0.65775
0.668633 0.0497346 0.648991
0.675183 0.0558179 0.641428
0.661557 0.0435503 0.647564
0.671642 0.0468471 0.645074
0.684557 0.0534091 0.654404
0.68271 0.0536141 0.650518
0.689658 0.0584688 0.651942
0.689142 0.0427621 0.644386
0.692494 0.0495058 0.652767
0.697653 0.0593429 0.658153
0.700322 0.0571454 0.648387
0.713246 0.0468932 0.647425
0.711568 0.0404712 0.640298
0.712697 0.0441916 0.653724
0.70116 0.0467748 0.658804
0.710454 0.0437921 0.647296
0.731815 0.0550983 0.641393
0.727239 0.0462638 0.659344
0.736239 0.0433362 0.655493
0.735741 0.0428096 0.649532
0.734028 0.0515075 0.659413
0.733582 0.0535366 0.646443
0.757295 0.0567931 0.647716
0.747306 0.0463784 0.648657
0.752417 0.0512708 0.649119
0.753626 0.0570251 0.654649
0.742871 0.0541969 0.641733
0.746062 0.0588513 0.643765
0.774866 0.0417394 0.642216
0.778633 0.0571234 0.654648
0.77146 0.0563055 0.655145
0.775356 0.0547744 0.654267
0.774192 0.0471483 0.659302
0.763461 0.0581 0.645451
0.784265 0.0460894 0.64812
0.785895 0.0449796 0.657674
0.78878 0.0430026 0.644291
0.793636 0.0584847 0.657011
0.78968 0.0597127 0.653868
0.788774 0.0553592 0.652353
0.815499 0.0523963 0.658432
0.817488 0.0587854 0.659752
0.819148 0.0502222 0.651674
0.808799 0.057717 0.654288
0.814258 0.0438184 0.648705
0.805774 0.0587733 0.652237
0.159487 0.0641057 0.651209
0.148179 0.0631749 0.655712
0.154726 0.0603318 0.645281
0.148778 0.0657843 0.650418
0.141792 0.0777544 0.650352
0.159635 0.0628705 0.647576
0.164141 0.0665225 0.656125
0.174798 0.0607183 0.654498
0.166014 0.0737826 0.643272
0.170853 0.0676578 0.64406
0.176313 0.0613655 0.649381
0.167654 0.0667031 0.658362
0.193096 0.0772214 0.655843
0.193846 0.0636071 0.657696
0.190783 0.0606246 0.647785
0.180838 0.06341 0.649205
0.188177 0.0671352 0.6453
0.180924 0.0644476 0.657407
0.214822 0.0664223 0.653638
0.213301 0.0689972 0.655953
0.202881 0.0746265 0.64063
0.215636 0.0679027 0.65817
0.201926 0.0793028 0.658977
0.204423 0.0740812 0.643833
0.238969 0.066336 0.658551
0.230846 0.0780773 0.657436
0.221436 0.0615705 0.647644
0.231652 0.0797411 0.646604
0.232903 0.0710952 0.656032
0.232798 0.0672955 0.651453
0.255122 0.0723442 0.650932
0.252573 0.0620538 0.658258
0.252135 0.0672667 0.658795
0.243268 0.0610264 0.647659
0.245541 0.0639142 0.641344
0.242942 0.0767233 0.650776
0.27654 0.0765796 0.641782
0.274937 0.0731851 0.651575
0.276587 0.066508 0.651692
0.263931 0.064403 0.645637
0.268076 0.0653336 0.647409
0.270238 0.0644715 0.641338
0.280332 0.0762518 0.652491
0.297439 0.0746023 0.643069
0.289411 0.0677589 0.652619
0.29896 0.0750824 0.650421
0.284262 0.0795263 0.643163
0.293507 0.0650636 0.645421
0.304595 0.0664794 0.643226
0.314901 0.0692675 0.656276
0.308803 0.0670799 0.659726
0.317703 0.072547 0.65044
0.314833 0.0678389 0.653826
0.318913 0.0770731 0.646076
0.325171 0.074006 0.654006
0.332507 0.0660305 0.652389
0.338027 0.0615982 0.658937
0.324316 0.0733612 0.654764
0.333194 0.0755624 0.642109
0.336701 0.0651435 0.652575
0.35389 0.065497 0.655434
0.353329 0.0777846 0.640431
0.341524 0.0691391 0.64849
0.347612 0.0695959 0.656139
0.355726 0.0667568 0.647887
0.354749 0.0709192 0.65625
0.367761 0.0744623 0.645041
0.378575 0.0766816 0.642767
0.371691 0.0643341 0.647115
0.374102 0.0626103 0.653289
0.368076 0.0656287 0.655041
0.364924 0.0736253 0.643636
0.386198 0.0649838 0.653795
0.383478 0.0766534 0.653372
0.389169 0.063374 0.658116
0.394497 0.0747885 0.640537
0.392098 0.0669439 0.652995
0.392497 0.0665566 0.644785
0.405592 0.0657416 0.645772
0.401717 0.0767559 0.648389
0.412231 0.0709294 0.647886
0.405622 0.0772611 0.645176
0.415209 0.0655447 0.65198
0.401746 0.0686273 0.647386
0.433233 0.0692103 0.654085
0.432014 0.0793006 0.65401
0.436278 0.0692983 0.643133
0.429187 0.0776656 0.655
0.426257 0.0797258 0.655719
0.435096 0.0731516 0.651742
0.44672 0.0722783 0.651623
0.452787 0.0763109 0.65496
0.457139 0.0602269 0.643073
0.444457 0.0712104 0.657484
0.441261 0.0718721 0.643516
0.441099 0.0710752 0.64545
0.47482 0.0674989 0.644886
0.464452 0.074186 0.648585
0.475028 0.079391 0.651542
0.463783 0.0776211 0.652802
0.464417 0.0751672 0.647065
0.472918 0.0678218 0.659784
0.491703 0.0782171 0.647327
0.499493 0.0671821 0.65414
0.489354 0.062976 0.65279
0.493092 0.0745102 0.656494
0.484813 0.0675312 0.640278
0.483225 0.0694338 0.656776
0.504748 0.0624572 0.657602
0.513814 0.0703454 0.654736
0.508729 0.0690192 0.651214
0.50929 0.0608723 0.648736
0.513199 0.0673845 0.646845
0.517905 0.0730456 0.643481
0.535458 0.0770453 0.647146
0.5267 0.0781147 0.65496
0.52416 0.0644229 0.652764
0.53142 0.0782819 0.657383
0.53114 0.0704296 0.653032
0.53094 0.0692761 0.648372
0.547814 0.072174 0.643118
0.557206 0.072782 0.655437
0.554828 0.0658255 0.642786
0.553344 0.0752655 0.644594
0.55295 0.0713336 0.647555
0.559634 0.0778692 0.643628
0.562401 0.0671215 0.644696
0.575921 0.0750281 0.654193
0.566619 0.0743207 0.644907
0.573179 0.0669382 0.64674
0.579331 0.0731606 0.658965
0.573234 0.0719105 0.64458
0.585357 0.0654179 0.645411
0.586432 0.0611366 0.646434
0.59564 0.0684845 0.642466
0.597633 0.0645081 0.659521
0.585328 0.0642092 0.658768
0.58401 0.0743322 0.641506
0.604519 0.0790711 0.653982
0.607549 0.0712745 0.646019
0.618121 0.0695552 0.656196
0.605331 0.0652268 0.641049
0.609371 0.0629431 0.654784
0.601892 0.07378 0.641754
0.632268 0.0666815 0.644477
0.626432 0.0759107 0.655427
0.628601 0.0657189 0.659633
0.624221 0.0758038 0.64165
0.639543 0.0780393 0.648183
0.637763 0.0666886 0.656675
0.657394 0.0692618 0.64114
0.648347 0.0719723 0.658968
0.654729 0.0795809 0.652371
0.651075 0.0706657 0.650635
0.649567 0.0613694 0.65832
0.655042 0.0784431 0.64445
0.674718 0.0796501 0.658574
0.675612 0.0694246 0.659539
0.676716 0.0783578 0.641757
0.675973 0.0686374 0.651949
0.674574 0.070367 0.653397
0.670912 0.0603178 0.64514
0.688152 0.073752 0.657896
0.688022 0.0684937 0.644149
0.681851 0.0727685 0.651014
0.681081 0.0647534 0.64777
0.684064 0.0769311 0.645888
0.692727 0.0676838 0.644796
0.700581 0.0610213 0.656781
0.717312 0.0738969 0.643609
0.716271 0.0710495 0.640273
0.701828 0.0782966 0.641369
0.702854 0.0630688 0.653105
0.710401 0.0709791 0.650498
0.738353 0.0624859 0.65209
0.738285 0.0729454 0.640825
0.738504 0.0622672 0.656759
0.732905 0.0674804 0.641333
0.726626 0.0605703 0.649714
0.723743 0.0796236 0.651856
0.745687 0.0721781 0.645058
0.74282 0.0627293 0.648367
0.75846 0.0620555 0.649055
0.741236 0.0665559 0.644519
0.757878 0.0639273 0.645351
0.741029 0.0709066 0.653874
0.762957 0.0648791 0.642964
0.776488 0.0732749 0.656761
0.776984 0.0641032 0.645984
0.760689 0.0691055 0.659695
0.769512 0.0758643 0.645664
0.775522 0.0644103 0.648525
0.799607 0.0628844 0.642695
0.797036 0.070397 0.659768
0.78342 0.0747886 0.659382
0.790277 0.0625337 0.655818
0.788534 0.0705526 0.65462
0.785903 0.0793072 0.652146
0.801095 0.0626184 0.645321
0.809522 0.0702513 0.65498
0.807873 0.0764397 0.658886
0.812708 0.0713037 0.659526
0.813639 0.0750257 0.654498
0.813324 0.0652564 0.654892
0.838607 0.0645419 0.646057
0.838099 0.0757092 0.642026
0.828867 0.0789317 0.650331
0.835791 0.067171 0.654334
0.826272 0.0653905 0.654161
0.83379 0.0743676 0.642599
0.842871 0.0682924 0.656665
0.842478 0.0623378 0.647413
0.857039 0.0662098 0.654755
0.849557 0.070804 0.648622
0.853723 0.074114 0.646569
0.84908 0.0706184 0.651913
0.127895 0.0930688 0.64284
0.137836 0.0861494 0.64199
0.12348 0.0982067 0.649769
0.132477 0.0807688 0.65664
0.126436 0.0924642 0.641105
0.1334 0.0804249 0.653567
0.15103 0.0806825 0.654469
0.140686 0.0966731 0.643662
0.1412 0.0977527 0.649181
0.14738 0.0992266 0.644846
0.156041 0.0865791 0.653361
0.150454 0.0878237 0.651214
0.178927 0.0816392 0.654617
0.164683 0.0987821 0.654281
0.172433 0.0828217 0.658794
0.160631 0.085026 0.657
0.169317 0.0879664 0.658881
0.168364 0.0897125 0.644456
0.189376 0.0830519 0.659038
0.182036 0.0916313 0.659357
0.183833 0.0967694 0.640611
0.184322 0.0817768 0.658478
0.186676 0.0894274 0.650208
0.184689 0.0912861 0.648928
0.219576 0.0869878 0.642037
0.204779 0.083519 0.653246
0.213736 0.0802817 0.644999
0.213069 0.0847285 0.659689
0.208089 0.0907739 0.65214
0.213389 0.0841933 0.648905
0.235584 0.0837081 0.651168
0.238504 0.0846611 0.649675
0.230893 0.0985449 0.648488
0.237131 0.0837298 0.648915
0.220416 0.0875557 0.643542
0.225649 0.0948879 0.652922
0.253636 0.0825225 0.6534
0.249659 0.0816374 0.640512
0.241292 0.099635 0.657988
0.242387 0.083411 0.649263
0.254361 0.082166 0.640851
0.242189 0.0975166 0.649329
0.264494 0.099331 0.646402
0.262049 0.0902437 0.652868
0.275222 0.096933 0.649299
0.262469 0.0946502 0.655133
0.278542 0.0914543 0.651157
0.26454 0.0940622 0.644548
0.290352 0.0912585 0.658974
0.296814 0.0922073 0.648051
0.289578 0.0916556 0.656183
0.297445 0.0852318 0.657775
0.282382 0.0878555 0.652395
0.290606 0.0924115 0.653426
0.304303 0.0978672 0.652769
0.319155 0.0960371 0.651388
0.315903 0.0887789 0.65937
0.31735 0.0885835 0.644681
0.308642 0.0987123 0.640568
0.318942 0.0917829 0.654033
0.321267 0.0915488 0.655492
0.338877 0.0873803 0.645343
0.324904 0.0811452 0.641806
0.332499 0.0828459 0.646187
0.322725 0.0880348 0.658245
0.323713 0.0947261 0.6565
0.359034 0.0830131 0.655983
0.352724 0.0853074 0.646592
0.348718 0.0827442 0.652439
0.351201 0.0986471 0.649657
0.34499 0.0832652 0.642539
0.343705 0.0864867 0.659592
0.37423 0.0950748 0.64369
0.377652 0.0922154 0.642735
0.371804 0.0889326 0.653907
0.36904 0.0893104 0.658952
0.368481 0.0849797 0.646772
0.376646 0.0963531 0.645422
0.398065 0.0829906 0.654422
0.383586 0.082943 0.655968
0.38651 0.0887952 0.658468
0.385155 0.095356 0.645855
0.389767 0.0919231 0.645262
0.393491 0.081425 0.653741
0.402673 0.0809727 0.644086
0.408418 0.0917162 0.645239
0.41362 0.0983702 0.654449
0.4145 0.0930069 0.65574
0.415683 0.0886293 0.650375
0.418629 0.0905368 0.654525
0.429176 0.085202 0.652795
0.42479 0.0912423 0.641659
0.43751 0.0809534 0.656918
0.427967 0.0827823 0.643577
0.434537 0.0946554 0.658476
0.422535 0.0804534 0.647856
0.441009 0.0964757 0.656483
0.444591 0.0807029 0.653221
0.440614 0.0867115 0.648075
0.449621 0.0881846 0.65337
