ply
format ascii 1.0
element vertex 1763
property float x
property float y
property float z
end_header
0.430707 0.123685 0.659486
0.434143 0.129764 0.644198
0.457159 0.124566 0.655235
0.44131 0.133297 0.645062
0.444216 0.132744 0.654899
0.457057 0.137859 0.655858
0.447841 0.130524 0.650742
0.441076 0.134418 0.65359
0.477286 0.128953 0.653486
0.468004 0.130429 0.657663
0.473016 0.124575 0.659467
0.47494 0.12323 0.649312
0.461589 0.12047 0.655675
0.468993 0.130562 0.659574
0.485822 0.12255 0.649684
0.499777 0.127192 0.659491
0.490498 0.128831 0.657213
0.490856 0.138172 0.652061
0.49156 0.12445 0.647586
0.496739 0.13127 0.643515
0.502078 0.12633 0.640663
0.514941 0.123137 0.65658
0.516937 0.127348 0.647569
0.506121 0.127832 0.642181
0.503645 0.134727 0.656495
0.517906 0.123392 0.659695
0.533848 0.126133 0.653352
0.53717 0.125858 0.640958
0.521108 0.125202 0.649642
0.535247 0.122409 0.648987
0.533782 0.134342 0.657033
0.534442 0.123839 0.647736
0.552321 0.124529 0.653872
0.548604 0.12502 0.641015
0.549727 0.130273 0.653466
0.55377 0.13155 0.645402
0.554223 0.133006 0.651459
0.556313 0.126335 0.643022
0.568869 0.134129 0.657916
0.569548 0.131417 0.652373
0.568632 0.139377 0.655001
0.566144 0.138565 0.651376
0.561205 0.127594 0.659377
0.575547 0.120394 0.65363
0.586926 0.137455 0.659143
0.585501 0.13898 0.659406
0.595021 0.125397 0.642475
0.583114 0.12894 0.659412
0.5993 0.123543 0.659561
0.582626 0.134349 0.656702
0.614883 0.130662 0.657445
0.615956 0.135009 0.646939
0.616347 0.131973 0.644335
0.618691 0.124606 0.654016
0.615905 0.135319 0.641602
0.603654 0.127307 0.643807
0.638725 0.122362 0.659288
0.622913 0.134903 0.653111
0.632058 0.129584 0.656335
0.632732 0.136457 0.646344
0.631101 0.125047 0.647347
0.634022 0.12699 0.658542
0.643868 0.12904 0.640701
0.654912 0.129269 0.64196
0.654413 0.123583 0.642006
0.644362 0.12575 0.658175
0.647193 0.126177 0.655013
0.640863 0.123354 0.653309
0.671048 0.120995 0.644159
0.675148 0.136671 0.648963
0.677141 0.139658 0.656002
0.668486 0.137655 0.656888
0.677561 0.128215 0.643347
0.679077 0.124776 0.650489
0.692469 0.130541 0.658668
0.696711 0.130345 0.653635
0.696834 0.125163 0.657808
0.693068 0.136055 0.646723
0.690606 0.137827 0.645206
0.690993 0.121432 0.643938
0.714142 0.122771 0.649465
0.70689 0.126704 0.642243
0.711463 0.130531 0.642732
0.707382 0.126641 0.656145
0.708427 0.125446 0.649647
0.700387 0.137964 0.643657
0.729417 0.130488 0.641593
0.722009 0.125306 0.640678
0.720227 0.126981 0.641936
0.728135 0.136319 0.657014
0.723148 0.121606 0.655182
0.723273 0.135168 0.646464
0.757997 0.121047 0.653901
0.758931 0.125826 0.646776
0.749197 0.135545 0.645221
0.757468 0.123689 0.65128
0.753352 0.131824 0.641792
0.751126 0.126901 0.646068
0.775665 0.121147 0.65596
0.774631 0.127653 0.653992
0.777188 0.128374 0.658087
0.770849 0.137319 0.642549
0.762644 0.124081 0.646988
0.778881 0.134451 0.652793
0.785951 0.136589 0.647714
0.798506 0.139211 0.643183
0.797637 0.135857 0.654737
0.784313 0.131252 0.65261
0.782037 0.13345 0.646478
0.786056 0.133685 0.642613
0.813907 0.127527 0.655741
0.803326 0.123035 0.653234
0.801364 0.128939 0.65561
0.812239 0.134908 0.649782
0.804672 0.121545 0.658205
0.815204 0.139735 0.642157
0.820772 0.139127 0.641125
0.835562 0.138455 0.650231
0.821365 0.133409 0.64723
0.835812 0.121658 0.646896
0.832221 0.12309 0.643498
0.831803 0.121734 0.64301
0.846116 0.121464 0.659229
0.852354 0.135375 0.648797
0.845547 0.138478 0.65839
0.842364 0.137258 0.651223
0.844246 0.132652 0.650479
0.843811 0.134927 0.652708
0.877976 0.13157 0.645155
0.879665 0.122926 0.655855
0.865128 0.132116 0.649795
0.864869 0.12729 0.647554
0.876455 0.137201 0.650345
0.864034 0.125809 0.647914
0.898395 0.132889 0.658073
0.896852 0.138617 0.656996
0.895808 0.123997 0.657712
0.882643 0.134328 0.657107
0.897152 0.133415 0.641977
0.89676 0.136397 0.650473
0.919254 0.127179 0.647755
0.919497 0.132451 0.652701
0.911802 0.124863 0.648957
0.918294 0.130519 0.646467
0.91669 0.134982 0.656574
0.90741 0.134778 0.654537
0.0821842 0.156866 0.656161
0.087183 0.156276 0.655639
0.0813415 0.141777 0.654406
0.0991589 0.14357 0.648223
0.0935468 0.153934 0.645906
0.0991157 0.153214 0.652877
0.11542 0.14473 0.652471
0.118992 0.152994 0.657384
0.105538 0.158818 0.655298
0.116615 0.151857 0.648381
0.115774 0.156902 0.644907
0.11121 0.147694 0.65267
0.121033 0.15344 0.651635
0.127351 0.142961 0.654162
0.128109 0.143505 0.657296
0.121834 0.152374 0.650788
0.129383 0.155142 0.640675
0.122526 0.150217 0.644871
0.142399 0.141713 0.651549
0.158161 0.153182 0.647146
0.146462 0.140655 0.646126
0.148287 0.156258 0.644076
0.142441 0.143131 0.65764
0.145649 0.157845 0.656206
0.170495 0.157578 0.645875
0.162674 0.143837 0.644529
0.165362 0.142558 0.648863
0.169696 0.153622 0.651805
0.174697 0.145611 0.640987
0.162125 0.150864 0.6524
0.196474 0.142911 0.656408
0.19082 0.153525 0.644069
0.180758 0.149257 0.650919
0.185766 0.157342 0.640339
0.180903 0.147421 0.654066
0.192651 0.15845 0.657379
0.207699 0.153843 0.648712
0.219619 0.145214 0.658486
0.219516 0.153175 0.646459
0.202722 0.148282 0.646268
0.201471 0.153156 0.651685
0.206353 0.149399 0.655982
0.220609 0.153573 0.646385
0.237943 0.147359 0.646089
0.234007 0.143602 0.653895
0.220846 0.156378 0.656764
0.226801 0.15839 0.646436
0.238803 0.151893 0.654821
0.247532 0.153857 0.645949
0.251702 0.153141 0.651613
0.241616 0.151796 0.644482
0.246224 0.153276 0.64539
0.250256 0.151986 0.648434
0.244394 0.151637 0.645948
0.260756 0.154612 0.641712
0.267846 0.146846 0.656122
0.2773 0.15735 0.657249
0.265409 0.152049 0.643221
0.279652 0.150542 0.654809
0.274104 0.146134 0.656559
0.283705 0.141309 0.64852
0.286301 0.14837 0.642109
0.293508 0.159088 0.65603
0.292462 0.143982 0.652972
0.288785 0.154374 0.653691
0.294261 0.153645 0.640885
0.302049 0.154112 0.659062
0.301248 0.144136 0.656721
0.310251 0.140958 0.645177
0.309275 0.154366 0.655085
0.311536 0.154023 0.646283
0.302636 0.148794 0.659235
0.338861 0.143719 0.643197
0.338834 0.144986 0.64887
0.329029 0.144488 0.656641
0.323361 0.150297 0.655427
0.322072 0.14923 0.653627
0.331743 0.152677 0.649236
0.341186 0.14329 0.646946
0.353998 0.157831 0.645536
0.357264 0.154061 0.651316
0.35428 0.159782 0.647343
0.354695 0.146576 0.656585
0.345906 0.145753 0.648839
0.374398 0.154998 0.642183
0.371164 0.153312 0.6491
0.366144 0.154254 0.658877
0.360705 0.148516 0.655877
0.367626 0.147958 0.644571
0.376126 0.150382 0.650934
0.383381 0.142082 0.65135
0.389318 0.140398 0.656214
0.387313 0.14547 0.651674
0.382021 0.153998 0.658117
0.39169 0.155812 0.656452
0.391813 0.14743 0.652078
0.410755 0.142985 0.652672
0.415024 0.152148 0.658108
0.411335 0.141728 0.65616
0.408611 0.158829 0.642813
0.416547 0.158354 0.650297
0.409692 0.144265 0.640893
0.421914 0.150413 0.652978
0.436949 0.156931 0.657428
0.438381 0.149743 0.643055
0.438987 0.158062 0.650585
0.428476 0.140859 0.641279
0.431529 0.15252 0.649546
0.452721 0.142987 0.646257
0.445886 0.151299 0.657162
0.443267 0.158157 0.654287
0.453164 0.157052 0.657789
0.455531 0.15924 0.643044
0.452876 0.151438 0.658124
0.460799 0.155852 0.646342
0.462915 0.156063 0.654023
0.473732 0.151936 0.654655
0.474596 0.156279 0.642913
0.460392 0.152881 0.650868
0.474613 0.150226 0.659622
0.496334 0.156146 0.653245
0.496603 0.14311 0.647985
0.497173 0.147698 0.65521
0.498657 0.1492 0.642633
0.482395 0.145119 0.643534
0.49552 0.158203 0.656605
0.508173 0.157592 0.658648
0.510606 0.158597 0.650261
0.504635 0.150435 0.644326
0.502053 0.153483 0.656178
0.505381 0.149362 0.646134
0.508579 0.143565 0.65844
0.537795 0.150613 0.657927
0.530885 0.152115 0.641187
0.530992 0.159611 0.657593
0.520371 0.153796 0.651829
0.533226 0.150673 0.651034
0.522254 0.158477 0.643145
0.549263 0.148526 0.640701
0.554089 0.145324 0.648537
0.543947 0.146341 0.657345
0.555428 0.142178 0.641033
0.540663 0.143021 0.643151
0.551372 0.146517 0.65679
0.578591 0.14726 0.642679
0.573001 0.14189 0.646938
0.579319 0.159664 0.650363
0.574811 0.147493 0.658499
0.560557 0.142255 0.649074
0.575749 0.141529 0.647836
0.597007 0.15769 0.659414
0.59047 0.142277 0.645495
0.580824 0.140277 0.657844
0.597352 0.158 0.643691
0.587947 0.158355 0.649003
0.580616 0.141477 0.651335
0.608618 0.158507 0.649219
0.619112 0.150946 0.641817
0.6063 0.148371 0.652202
0.602279 0.157606 0.645237
0.618255 0.152343 0.644718
0.61153 0.152335 0.651296
0.627394 0.158171 0.64293
0.62208 0.141852 0.652474
0.631256 0.140281 0.642293
0.632796 0.151288 0.652121
0.634506 0.158097 0.647871
0.633385 0.154108 0.642683
0.658482 0.148904 0.641
0.645701 0.144271 0.650229
0.644093 0.155057 0.651419
0.648232 0.148916 0.642152
0.651043 0.156731 0.642576
0.640236 0.149227 0.643782
0.661666 0.14278 0.657631
0.671352 0.145268 0.646947
0.679477 0.148639 0.642552
0.671245 0.157172 0.647058
0.665698 0.140633 0.645402
0.667067 0.152112 0.653746
0.688357 0.154051 0.643257
0.698773 0.141217 0.64049
0.691511 0.158738 0.650911
0.683333 0.145351 0.658841
0.680218 0.157727 0.641277
0.688302 0.140571 0.648808
0.705515 0.140857 0.648618
0.702982 0.15907 0.641196
0.706219 0.151045 0.646642
0.711645 0.154008 0.654983
0.716422 0.148418 0.644592
0.704739 0.157799 0.650517
0.720639 0.15273 0.659329
0.732338 0.14556 0.651278
0.738419 0.140745 0.644961
0.721802 0.159702 0.644369
0.732239 0.152755 0.644952
0.72349 0.146295 0.648632
0.747283 0.15616 0.642113
0.756001 0.148116 0.64545
0.748288 0.14865 0.644951
0.750335 0.156868 0.65447
0.746388 0.155931 0.659744
0.742568 0.14443 0.655023
0.772209 0.155467 0.657033
0.778513 0.157839 0.641193
0.777855 0.152032 0.640212
0.774415 0.157857 0.649292
0.767323 0.148346 0.644935
0.777117 0.150615 0.646771
0.780237 0.143373 0.656434
0.781476 0.143487 0.644505
0.794891 0.144125 0.644398
0.799607 0.153382 0.654153
0.793216 0.141458 0.655757
0.793525 0.159622 0.647806
0.812825 0.158148 0.646149
0.806222 0.153686 0.653426
0.80896 0.141242 0.647548
0.810691 0.157617 0.655155
0.806232 0.148648 0.659305
0.816078 0.159115 0.649799
0.823103 0.159216 0.646391
0.829649 0.15096 0.657393
0.83471 0.145749 0.64295
0.821357 0.147219 0.658684
0.825662 0.15073 0.656253
0.836279 0.159383 0.650794
0.844944 0.156099 0.655145
0.840385 0.153747 0.647998
0.847739 0.146834 0.64418
0.858473 0.154073 0.650251
0.852256 0.149305 0.658467
0.842857 0.158966 0.644257
0.869589 0.145737 0.648445
0.863425 0.144305 0.649679
0.863495 0.158745 0.653916
0.870786 0.155233 0.644403
0.866392 0.14916 0.650734
0.875108 0.156322 0.65107
0.892091 0.142496 0.65249
0.891378 0.154007 0.657522
0.899021 0.14766 0.640793
0.885489 0.157671 0.649188
0.889616 0.158625 0.648412
0.882782 0.152873 0.65401
0.902687 0.145871 0.641162
0.917819 0.155249 0.643631
0.901765 0.15521 0.646955
0.911546 0.150492 0.650427
0.908409 0.157793 0.647265
0.91249 0.149552 0.641928
0.226241 0.0351169 0.670946
0.230981 0.0284669 0.668627
0.220497 0.0355303 0.673915
0.237549 0.0277192 0.676284
0.231523 0.0254191 0.67401
0.224708 0.0344652 0.678926
0.241818 0.0357458 0.661953
0.24784 0.0240207 0.661894
0.249164 0.0241697 0.673949
0.243303 0.0387929 0.660854
0.246672 0.0238093 0.661769
0.250441 0.032152 0.668986
0.262936 0.0262009 0.66352
0.269539 0.0255586 0.674478
0.2711 0.0379438 0.673899
0.278218 0.023842 0.671285
0.270534 0.0281995 0.661986
0.274105 0.0253454 0.670917
0.282424 0.0210217 0.667813
0.281661 0.0246556 0.676257
0.284255 0.0368194 0.664105
0.28779 0.0295482 0.674617
0.295552 0.032463 0.671162
0.29032 0.0243501 0.66505
0.300455 0.0209715 0.676016
0.309563 0.0244593 0.678686
0.302747 0.0384756 0.677553
0.306599 0.0272082 0.674785
0.300998 0.0247978 0.660688
0.316433 0.0387054 0.663787
0.333101 0.0203829 0.665192
0.332068 0.0282722 0.679375
0.330345 0.0381561 0.668267
0.330728 0.0384058 0.665898
0.32617 0.0327783 0.672178
0.338009 0.0368406 0.671752
0.355748 0.0283942 0.678609
0.342383 0.0251416 0.673853
0.345004 0.0212254 0.662067
0.359093 0.0354747 0.664707
0.341341 0.0302497 0.671424
0.35855 0.0356677 0.678112
0.377885 0.0266309 0.662993
0.365338 0.0349806 0.672972
0.366048 0.0248698 0.675042
0.375659 0.0247326 0.67557
0.360354 0.0364351 0.66806
0.377297 0.0341181 0.6696
0.38247 0.037116 0.675298
0.385275 0.0338515 0.67388
0.394597 0.0360161 0.672112
0.393593 0.0339764 0.67575
0.397488 0.0321177 0.663277
0.392203 0.0396115 0.673637
0.401121 0.027409 0.677229
0.400264 0.0219309 0.671623
0.401144 0.0347066 0.674204
0.416753 0.0296578 0.664173
0.417216 0.0306609 0.660389
0.407264 0.0311225 0.672575
0.428732 0.0325908 0.663402
0.426736 0.0371611 0.667276
0.42268 0.0273725 0.671501
0.427269 0.023859 0.662738
0.424114 0.0210607 0.669162
0.428506 0.0241493 0.669289
0.441624 0.0286918 0.679594
0.458932 0.0320424 0.676454
0.444513 0.0238206 0.670931
0.447113 0.0280545 0.663974
0.443479 0.0294561 0.664041
0.445193 0.0363342 0.677091
0.46608 0.0251909 0.677299
0.469553 0.0367709 0.670811
0.471453 0.0378592 0.661384
0.468787 0.0342607 0.672866
0.474935 0.0234622 0.669204
0.464812 0.0265176 0.667752
0.486433 0.022104 0.668138
0.491891 0.0317217 0.671024
0.484823 0.0266256 0.660363
0.495243 0.0353012 0.665379
0.482541 0.0260956 0.676442
0.497312 0.0335789 0.667052
0.504876 0.0278389 0.666786
0.505523 0.029069 0.66055
0.502555 0.0235813 0.66046
0.512892 0.0225361 0.667594
0.515683 0.0305464 0.67068
0.504394 0.0374817 0.677196
0.526539 0.0224924 0.676615
0.520841 0.0308315 0.662485
0.529266 0.020924 0.675442
0.533747 0.0288075 0.660985
0.527748 0.0362512 0.678469
0.533004 0.0353101 0.676271
0.556164 0.0204854 0.671949
0.551304 0.0387562 0.670825
0.54488 0.0218285 0.677388
0.544873 0.0384937 0.671884
0.551002 0.0245762 0.676659
0.557805 0.0208253 0.666457
0.573376 0.0279921 0.67864
0.574608 0.0331011 0.678847
0.57569 0.0310661 0.660895
0.576594 0.0259659 0.666514
0.566797 0.0356038 0.665564
0.578421 0.0365472 0.678978
0.584671 0.0261718 0.667081
0.593398 0.0309582 0.669412
0.592181 0.0215797 0.660202
0.592671 0.0297239 0.676486
0.596384 0.030323 0.676505
0.582774 0.0377052 0.667961
0.610307 0.0389471 0.660981
0.615351 0.0294295 0.664717
0.609203 0.0221149 0.665826
0.618703 0.038103 0.675774
0.604307 0.0205464 0.676745
0.60693 0.035235 0.674751
0.625304 0.0245298 0.669258
0.620736 0.0317288 0.664887
0.638007 0.0355323 0.66376
0.623314 0.0387973 0.672564
0.636287 0.0314296 0.668514
0.633771 0.0386473 0.66831
0.648893 0.0309579 0.66672
0.654226 0.0356688 0.674807
0.648599 0.0272465 0.670235
0.657964 0.0305108 0.665809
0.641056 0.0286902 0.677934
0.645958 0.0311525 0.660873
0.668205 0.0274984 0.672197
0.666388 0.0262177 0.674263
0.675919 0.0377067 0.672253
0.665882 0.0354235 0.664525
0.666868 0.0211735 0.660712
0.664639 0.0203479 0.660888
0.684496 0.0358199 0.66824
0.680955 0.0385961 0.673851
0.683721 0.0312254 0.663209
0.681452 0.0207703 0.664681
0.691625 0.0390769 0.67225
0.693927 0.0358372 0.66812
0.709709 0.0394808 0.661676
0.709302 0.0271756 0.677506
0.714415 0.0287934 0.664857
0.701775 0.0328577 0.676917
0.701482 0.0226262 0.672018
0.706852 0.0210925 0.667331
0.726963 0.0294381 0.672744
0.72323 0.0304312 0.662362
0.739562 0.0263703 0.661484
0.730569 0.0390648 0.668077
0.734937 0.0255442 0.663881
0.723993 0.0338888 0.679463
0.754934 0.0293615 0.66959
0.749569 0.0241987 0.663949
0.74813 0.0269257 0.663916
0.740436 0.0297116 0.662356
0.751488 0.0283908 0.674934
0.746089 0.0203446 0.662274
0.775167 0.0296909 0.660487
0.774789 0.0251782 0.667548
0.760401 0.0202629 0.674772
0.762519 0.0312097 0.663338
0.769208 0.0326488 0.67929
0.766656 0.0223218 0.676107
0.199051 0.057348 0.674929
0.187734 0.0481328 0.661707
0.181707 0.0403018 0.663091
0.186185 0.0557825 0.673312
0.181711 0.0495964 0.670402
0.181982 0.053485 0.661538
0.200666 0.055874 0.670639
0.206325 0.0437726 0.673507
0.206052 0.0469334 0.666566
0.20605 0.0561535 0.674478
0.204692 0.0448866 0.665033
0.204361 0.0460743 0.67069
0.234294 0.0406196 0.663549
0.23774 0.0466786 0.662296
0.236091 0.0486669 0.671682
0.227189 0.0473452 0.667615
0.229627 0.0581558 0.668784
0.237294 0.0448342 0.679101
0.255343 0.0488922 0.663375
0.257586 0.0410088 0.665996
0.240428 0.0461819 0.660434
0.258447 0.0463526 0.660818
0.240998 0.0590404 0.674477
0.255638 0.0406549 0.66339
0.264321 0.0433804 0.667736
0.265166 0.0492647 0.677378
0.275695 0.0517584 0.666312
0.271795 0.0476797 0.678342
0.262632 0.0460542 0.663333
0.262486 0.0521511 0.673809
0.292859 0.0431239 0.66124
0.288145 0.0561891 0.669648
0.28707 0.0592336 0.668709
0.297048 0.0573706 0.679653
0.299329 0.0441099 0.665527
0.284672 0.0560105 0.672995
0.301745 0.0507585 0.676483
0.314208 0.0568973 0.660519
0.305851 0.0538414 0.663862
0.302607 0.0484495 0.674448
0.315768 0.0418712 0.6745
0.315082 0.0406607 0.663922
0.335907 0.05195 0.664781
0.324378 0.0489324 0.660875
0.336302 0.0581342 0.672325
0.339028 0.0572139 0.67259
0.336123 0.0488672 0.661265
0.327732 0.0416402 0.662917
0.350272 0.0585197 0.673428
0.350867 0.0429381 0.674765
0.354337 0.0512147 0.662841
0.350525 0.0584949 0.669043
0.349496 0.0527608 0.665604
0.343931 0.0490059 0.662689
0.368649 0.0534683 0.675218
0.363896 0.0553304 0.669181
0.365369 0.0490962 0.668988
0.378014 0.0419197 0.660948
0.374654 0.0551133 0.672455
0.373509 0.0578851 0.675065
0.397539 0.0423783 0.670357
0.384536 0.0525984 0.677441
0.384772 0.0532664 0.672281
0.39426 0.0587112 0.661668
0.380367 0.0526145 0.662927
0.388572 0.0532878 0.661955
0.415828 0.0504388 0.678712
0.410552 0.0450505 0.674897
0.407296 0.0542597 0.670259
0.417991 0.0405743 0.679429
0.417292 0.0584628 0.664021
0.401685 0.0429906 0.66184
0.422803 0.0595054 0.66534
0.439775 0.0489968 0.663278
0.428358 0.0484713 0.678617
0.438316 0.0528092 0.675649
0.42507 0.0580641 0.675729
0.438281 0.044739 0.662698
0.453626 0.0511903 0.675864
0.454142 0.0505257 0.666366
0.458189 0.0413642 0.674493
0.459079 0.0516708 0.661672
0.458658 0.0525157 0.679238
0.453571 0.0514636 0.674903
0.479286 0.046845 0.669784
0.477127 0.0470323 0.672139
0.467548 0.041572 0.670665
0.475145 0.0529011 0.672527
0.464582 0.052193 0.675201
0.477344 0.0508719 0.676143
0.482412 0.0584115 0.675353
0.4956 0.0592029 0.673482
0.488542 0.0589025 0.670934
0.495382 0.0560032 0.673132
0.492696 0.0427178 0.679479
0.49389 0.0437417 0.677677
0.501611 0.047312 0.671627
0.509232 0.0538825 0.66375
0.518184 0.0588972 0.673622
0.519368 0.0590759 0.6712
0.515719 0.0489977 0.663247
0.515645 0.0476958 0.674847
0.53295 0.0520302 0.672763
0.536897 0.0518629 0.663555
0.53116 0.058003 0.669397
0.531697 0.0554011 0.67159
0.538323 0.0430739 0.670946
0.529442 0.0535062 0.677079
0.544171 0.0427416 0.678534
0.5539 0.0434879 0.679221
0.54877 0.0427843 0.67873
0.541453 0.0462214 0.667361
0.544455 0.0477653 0.66053
0.55606 0.043136 0.660839
0.577008 0.0586793 0.67697
0.562262 0.0496569 0.661855
0.573841 0.0448804 0.671423
0.569208 0.0408229 0.666262
0.562919 0.0485162 0.674888
0.576261 0.043497 0.672335
0.590379 0.044119 0.679645
0.596996 0.0450442 0.670923
0.598825 0.0529633 0.672858
0.587747 0.0558845 0.664042
0.585471 0.0507159 0.675068
0.58694 0.0566191 0.676566
0.61673 0.0429779 0.671427
0.611442 0.0456369 0.669214
0.614609 0.0452834 0.676138
0.611973 0.0494631 0.66854
0.607012 0.0454734 0.667496
0.606034 0.0428206 0.679721
0.621107 0.0462833 0.676647
0.623629 0.0488289 0.660585
0.638089 0.0587747 0.670495
0.621061 0.04305 0.672642
0.634061 0.0514793 0.672086
0.630924 0.0441186 0.665028
0.64121 0.049661 0.661255
0.646568 0.046778 0.660659
0.641143 0.0538042 0.669136
0.65715 0.0433987 0.672538
0.650346 0.0514689 0.671669
0.657692 0.0591715 0.669324
0.672681 0.059268 0.674192
0.675245 0.0440908 0.677683
0.672814 0.0546942 0.66425
0.662451 0.0482304 0.668503
0.666839 0.0560024 0.661629
0.660706 0.05065 0.671682
0.695365 0.0413072 0.671529
0.684399 0.0464845 0.673299
0.693168 0.0503565 0.662039
0.681815 0.0470097 0.666739
0.683245 0.0503534 0.660467
0.68406 0.0433158 0.666206
0.709543 0.0452165 0.678875
0.704534 0.0519496 0.672716
0.718508 0.0528469 0.677008
0.704396 0.0494779 0.672917
0.717693 0.0462611 0.67926
0.716596 0.0463355 0.676342
0.724111 0.0542017 0.67767
0.736823 0.0585967 0.660901
0.735554 0.0554828 0.673271
0.724325 0.0481291 0.667196
0.737584 0.0513065 0.679434
0.737968 0.0486717 0.677339
0.757118 0.0565265 0.662452
0.756457 0.0447666 0.663658
0.74861 0.0595555 0.66585
0.745155 0.0439212 0.677194
0.742383 0.0593097 0.668973
0.745354 0.0531462 0.666022
0.776801 0.0415063 0.666416
0.776864 0.0437292 0.666623
0.770396 0.0442487 0.662163
0.777144 0.0496431 0.671099
0.761648 0.0471282 0.66626
0.770663 0.056687 0.66693
0.797752 0.0564742 0.663969
0.797353 0.0580988 0.664041
0.78721 0.0437405 0.666804
0.785241 0.0593311 0.660991
0.798321 0.0440468 0.678768
0.782399 0.0426331 0.672312
0.808609 0.0487957 0.669359
0.807926 0.0564025 0.677644
0.804909 0.0433444 0.67091
0.819673 0.0482204 0.671637
0.819753 0.0539605 0.67468
0.811046 0.0537729 0.67255
0.153397 0.0680369 0.671863
0.154948 0.0780852 0.660374
0.140415 0.0731169 0.671884
0.156848 0.0629174 0.673902
0.147643 0.0752399 0.679782
0.140833 0.0762434 0.674152
0.16728 0.0719838 0.672663
0.167871 0.0714361 0.661976
0.167052 0.0765151 0.678493
0.173492 0.061989 0.669174
0.163235 0.0648826 0.671591
0.167396 0.0604525 0.666301
0.182428 0.0731969 0.661433
0.185776 0.0784778 0.663246
0.18665 0.0731455 0.676939
0.198104 0.0754129 0.661388
0.182767 0.069356 0.667423
0.184987 0.0696706 0.677666
0.201844 0.0622316 0.663505
0.217716 0.0624052 0.668112
0.201222 0.0790827 0.677611
0.210816 0.0634269 0.665407
0.211117 0.0711946 0.679277
0.214178 0.073895 0.672091
0.229209 0.0741675 0.672101
0.236301 0.0784762 0.664567
0.221596 0.0770093 0.663427
0.225586 0.0712511 0.667302
0.225134 0.0721501 0.674216
0.220854 0.065749 0.662907
0.241219 0.0631891 0.671869
0.24662 0.0779789 0.671963
0.243078 0.0784079 0.668376
0.249586 0.063273 0.663867
0.254043 0.0648938 0.678966
0.242992 0.0707035 0.672011
0.266914 0.0639711 0.661303
0.269549 0.0754313 0.668878
0.264863 0.0786309 0.664144
0.279396 0.0723518 0.675805
0.27781 0.0624984 0.672351
0.271539 0.0741665 0.663653
0.299555 0.0770721 0.662093
0.295819 0.0792844 0.665983
0.280825 0.0795263 0.661271
0.286362 0.0671703 0.662359
0.295804 0.0732153 0.674697
0.297307 0.0604615 0.669402
0.315304 0.0684647 0.660249
0.315708 0.0719928 0.671371
0.308203 0.0674526 0.673866
0.30031 0.0726435 0.661242
0.314657 0.0752259 0.660305
0.318413 0.0613333 0.668439
0.32362 0.0711963 0.665969
0.325218 0.0639365 0.666226
0.323335 0.0730269 0.674729
0.334005 0.0678842 0.678474
0.326826 0.0639136 0.678668
0.330862 0.0607362 0.66032
0.348545 0.0612738 0.669232
0.346832 0.0733683 0.662277
0.356221 0.0674498 0.675377
0.355812 0.0782177 0.666852
0.352642 0.0692691 0.664435
0.347394 0.0749416 0.667878
0.363617 0.0626599 0.67086
0.376766 0.0637203 0.664276
0.377871 0.0793063 0.675839
0.378874 0.0696497 0.676845
0.366963 0.0781399 0.670262
0.36788 0.0664966 0.661927
0.389684 0.0726685 0.676215
0.393547 0.0748524 0.67594
0.393729 0.0602725 0.660893
0.386423 0.0688468 0.666202
0.39884 0.0759284 0.676952
0.398122 0.0658943 0.670686
0.409347 0.0792415 0.669176
0.418583 0.0693401 0.661411
0.406504 0.0711719 0.664305
0.413839 0.0625443 0.676662
0.411312 0.0721871 0.667211
0.411251 0.0747206 0.668923
0.439174 0.0773233 0.677001
0.428567 0.0647952 0.679656
0.428569 0.0657215 0.660679
0.425672 0.0742658 0.677763
0.426943 0.0612955 0.670918
0.421494 0.064704 0.661251
0.441687 0.0742988 0.66068
0.458816 0.0704726 0.667727
0.443977 0.0710156 0.663873
0.452594 0.0682525 0.66797
0.446966 0.0782484 0.662249
0.447744 0.0605172 0.665736
0.478813 0.0623486 0.67713
0.477331 0.0789531 0.67969
0.473102 0.0717755 0.667002
0.462178 0.0751135 0.665164
0.462299 0.070994 0.666007
0.468994 0.068476 0.669046
0.482471 0.0684104 0.660511
0.496405 0.0666774 0.675302
0.48911 0.0672501 0.66545
0.480689 0.0645333 0.661002
0.495474 0.0603203 0.670246
0.488328 0.0734751 0.672204
0.502749 0.0639979 0.662818
0.518718 0.0768043 0.660431
0.505944 0.0668185 0.665586
0.508878 0.0755197 0.673291
0.516031 0.0624199 0.665781
0.51091 0.071999 0.664171
0.531 0.0705673 0.677051
0.524794 0.0686513 0.67661
0.537597 0.0735129 0.674593
0.522927 0.0690099 0.661338
0.529002 0.0777103 0.664533
0.53773 0.0785677 0.677709
0.546798 0.0686488 0.677787
0.555541 0.0769482 0.677812
0.552624 0.0645633 0.665553
0.547638 0.0790842 0.662143
0.54565 0.0740389 0.66713
0.55757 0.0791152 0.67285
0.565833 0.069417 0.679425
0.56881 0.0670074 0.672562
0.578678 0.0705507 0.664278
0.576479 0.0738576 0.669208
0.56748 0.0626816 0.666844
0.572268 0.0731977 0.679072
0.597043 0.0679495 0.678176
0.589555 0.0678441 0.665382
0.58226 0.0727533 0.663855
0.585891 0.0736264 0.676121
0.581815 0.0650412 0.673267
0.592488 0.0630616 0.679127
0.617821 0.0779315 0.66564
0.605867 0.0766003 0.675055
0.616056 0.0604829 0.666987
0.604105 0.0675028 0.676739
0.601272 0.0733389 0.667977
0.607697 0.0738351 0.670935
0.626998 0.061728 0.662625
0.638793 0.0649651 0.669231
0.63062 0.077661 0.670795
0.629484 0.0666614 0.676508
0.625938 0.0733835 0.67496
0.638081 0.0671595 0.667172
0.651057 0.0688625 0.660534
0.657543 0.0710648 0.675921
0.652408 0.0707467 0.662555
0.652675 0.0793338 0.675662
0.655691 0.0694672 0.662967
0.656383 0.0793937 0.668705
0.673003 0.0667693 0.676575
0.66058 0.0717183 0.67176
0.676209 0.0712726 0.678761
0.674488 0.0643472 0.662684
0.670519 0.071212 0.671561
0.678677 0.0681168 0.665002
0.697743 0.0736486 0.663377
0.683786 0.0788738 0.675876
0.695625 0.0749079 0.670437
0.685021 0.0629208 0.671099
0.694439 0.0715449 0.663032
0.685092 0.0634512 0.669613
0.718106 0.0668324 0.666985
0.713468 0.0722345 0.672101
0.710881 0.062149 0.677957
0.704648 0.0649391 0.676828
0.70547 0.0788328 0.668707
0.700951 0.0705997 0.665543
0.734076 0.0642335 0.674804
0.738442 0.0650111 0.663486
0.729006 0.0707433 0.679464
0.734818 0.0659853 0.669122
0.724456 0.0796939 0.672749
0.733629 0.0797342 0.6684
0.744753 0.0621918 0.672131
0.745272 0.0733661 0.670413
0.741925 0.0617676 0.661826
0.759549 0.0777114 0.673665
0.752581 0.0735603 0.67286
0.742237 0.0719374 0.67784
0.765923 0.0630585 0.663366
0.761922 0.0660829 0.671971
0.764073 0.0740915 0.665243
0.775157 0.0765442 0.675323
0.776791 0.0751531 0.667161
0.767698 0.0739808 0.671187
0.780883 0.0616631 0.668323
0.791821 0.0759565 0.665267
0.785147 0.06044 0.662693
0.792091 0.0724965 0.678655
0.795742 0.0615714 0.663054
0.782382 0.0746665 0.672158
0.801951 0.0677924 0.662219
0.811117 0.0663475 0.66394
0.801409 0.0683999 0.674305
0.801678 0.0689335 0.677029
0.817038 0.0666736 0.660683
0.816537 0.07237 0.670216
0.822839 0.0645956 0.674658
0.823205 0.0605851 0.668125
0.830248 0.0660904 0.67393
0.826114 0.0653556 0.671947
0.82529 0.0784446 0.662927
0.821465 0.0633483 0.675286
0.848291 0.0640888 0.664048
0.845409 0.0657466 0.666079
0.844273 0.0650827 0.674411
0.856833 0.0682346 0.667954
0.855767 0.0696821 0.671342
0.855831 0.062759 0.665035
0.126477 0.0821695 0.674075
0.121238 0.0892295 0.673516
0.125785 0.0808734 0.66149
0.134155 0.0834141 0.674747
0.12067 0.0813463 0.667336
0.123831 0.0894706 0.66897
0.14967 0.0946496 0.663376
0.148133 0.0916452 0.679552
0.143679 0.0856247 0.679459
0.151489 0.0985317 0.664565
0.158522 0.0810089 0.676238
0.153659 0.0990434 0.668246
0.167698 0.0820752 0.661784
0.172636 0.0870178 0.67453
0.163239 0.0834099 0.662509
0.178359 0.081484 0.672197
0.177038 0.0934839 0.677149
0.173258 0.0886309 0.673262
0.189071 0.0853737 0.669167
0.197055 0.0988143 0.665396
0.182564 0.0903775 0.679207
0.183503 0.0987396 0.676931
0.194879 0.0927685 0.674221
0.188885 0.0984363 0.663514
0.212837 0.0997599 0.665003
0.210251 0.0980865 0.676319
0.21573 0.0863711 0.660313
0.206029 0.0825743 0.670511
0.207467 0.0858752 0.677428
0.202326 0.080657 0.661446
0.236496 0.0983677 0.668442
0.224451 0.0806946 0.661352
0.229196 0.0990347 0.668538
0.22596 0.0926534 0.661854
0.234997 0.0941116 0.668165
0.23702 0.0927542 0.665924
0.249463 0.0920497 0.673578
0.253954 0.0961418 0.669031
0.248589 0.0832908 0.668535
0.245101 0.0986452 0.672727
0.245583 0.0909254 0.674787
0.256014 0.0850088 0.662619
0.273959 0.0923423 0.677184
0.278842 0.0855034 0.667913
0.271679 0.0972273 0.663219
0.270411 0.0909912 0.669575
0.264417 0.0862682 0.660839
0.266549 0.0847722 0.66424
0.29606 0.0948859 0.661869
0.294028 0.0860537 0.678732
0.298042 0.088447 0.66579
0.299176 0.082657 0.673382
0.297452 0.0917036 0.678931
0.288507 0.0959453 0.664196
0.301078 0.0865221 0.679546
0.306019 0.0875961 0.670959
0.301855 0.0837529 0.665386
0.308697 0.0920916 0.660898
0.317425 0.0949245 0.672954
0.301778 0.0826257 0.677272
0.329181 0.0976188 0.670227
0.325248 0.0831722 0.671561
0.32976 0.0859809 0.675389
0.321082 0.0838691 0.673025
0.32917 0.0833773 0.677375
0.331823 0.0905753 0.673436
0.351712 0.0838714 0.676975
0.346759 0.0809324 0.671998
0.358859 0.0919233 0.67332
0.345085 0.0831434 0.663014
0.348229 0.0912761 0.665556
0.340299 0.0950538 0.660986
0.3672 0.0941463 0.675618
0.377168 0.0957347 0.675568
0.364507 0.0981932 0.678135
0.372494 0.0975622 0.671569
0.360913 0.0825935 0.672866
0.375023 0.0959846 0.672441
0.388899 0.0934074 0.670382
0.388735 0.0843341 0.67037
0.390871 0.080345 0.662281
0.398664 0.0992166 0.668768
0.397391 0.0955691 0.664716
0.390822 0.091469 0.673073
0.406323 0.0954003 0.665161
0.417923 0.0908449 0.675484
0.417987 0.0969323 0.668007
0.412714 0.0920414 0.66552
0.400461 0.0811191 0.662325
0.414004 0.0911408 0.674045
0.43946 0.0942367 0.678292
0.431464 0.0829681 0.661618
0.436659 0.0862973 0.668498
0.437079 0.0952595 0.674428
0.425636 0.0832491 0.671581
0.426052 0.0975003 0.662439
0.443438 0.0866374 0.669611
0.444496 0.0958117 0.663644
0.45888 0.0927025 0.675134
0.454448 0.0985203 0.678165
0.446643 0.0992591 0.676728
0.443674 0.0978243 0.679053
0.467062 0.0938767 0.662967
0.479489 0.0910596 0.66567
0.462026 0.090264 0.663036
0.477506 0.095149 0.679105
0.464454 0.092736 0.668536
0.475945 0.0930403 0.660392
0.495641 0.0856835 0.676465
0.490597 0.0897108 0.662234
0.488235 0.0832065 0.662233
0.482471 0.0877698 0.661384
0.488204 0.0921066 0.667828
0.495252 0.0939017 0.679726
0.512471 0.0877013 0.668727
0.505882 0.0881623 0.672029
0.512657 0.0890724 0.664869
0.503352 0.084405 0.66084
0.516752 0.0856462 0.66199
0.513417 0.0989669 0.665011
0.525754 0.0941072 0.675849
0.532801 0.0974314 0.677671
0.532153 0.0955975 0.671797
0.530259 0.0805417 0.671013
0.528454 0.0876111 0.669503
0.533425 0.0864048 0.678401
0.557024 0.0902481 0.673956
0.553118 0.0956678 0.667538
0.553461 0.0988421 0.678229
0.547348 0.0941376 0.669395
0.558186 0.0926509 0.663102
0.546413 0.0976169 0.663069
0.575548 0.0823025 0.66053
0.572365 0.0959486 0.673454
0.579047 0.0986576 0.665946
0.562675 0.0866221 0.660378
0.567291 0.0813408 0.662001
0.566491 0.0917962 0.671376
0.582002 0.0891925 0.679614
0.596497 0.0821631 0.661073
0.582483 0.0814619 0.664411
0.594467 0.0841404 0.677623
0.585493 0.0878387 0.66703
0.580475 0.0847164 0.66337
0.602989 0.0888497 0.673151
0.606418 0.0835001 0.663795
0.606524 0.0984373 0.662473
0.616839 0.08301 0.670216
0.609047 0.0852231 0.67179
0.609437 0.0908411 0.676685
0.635934 0.0869838 0.667554
0.631583 0.0964867 0.675244
0.632467 0.0966832 0.663985
0.632485 0.0943803 0.670565
0.628625 0.0874861 0.662398
0.632247 0.0935202 0.670936
0.657402 0.0944139 0.674798
0.647712 0.088086 0.663799
0.657501 0.0812848 0.662536
0.640369 0.0984332 0.66228
0.648438 0.0826687 0.664669
0.651769 0.0976956 0.676841
0.676121 0.0934742 0.675571
0.679666 0.0843971 0.666415
0.676286 0.0908522 0.674338
0.674779 0.0931024 0.661735
0.674869 0.0944726 0.66829
0.663041 0.0966022 0.66041
0.69906 0.0947737 0.678527
0.697196 0.0972088 0.676762
0.692794 0.080888 0.664377
0.687528 0.0926975 0.660437
0.698305 0.098125 0.660406
0.688605 0.0969473 0.674291
0.71514 0.0940012 0.664357
0.714783 0.0864971 0.67247
0.716017 0.0857145 0.672646
0.718663 0.0996685 0.677833
0.716134 0.0914468 0.674549
0.711393 0.0917332 0.674605
0.728091 0.0857846 0.679135
0.721271 0.0992542 0.661348
0.73376 0.0913783 0.678242
0.720862 0.080437 0.668904
0.73466 0.090285 0.67198
0.736779 0.0862304 0.669317
0.748909 0.0889817 0.672808
0.741789 0.0928826 0.676651
0.754686 0.0818773 0.675174
0.759601 0.0825329 0.667723
0.741979 0.0838899 0.668016
0.747448 0.08752 0.664907
0.769473 0.0973092 0.679662
0.772899 0.0825487 0.666402
0.778317 0.0844919 0.66065
0.763384 0.0896328 0.670643
0.779768 0.098957 0.672829
0.772038 0.0950363 0.675754
0.798703 0.097038 0.676857
0.799064 0.086201 0.665911
0.789587 0.0925487 0.673574
0.783023 0.0817414 0.674958
0.796726 0.0824681 0.662214
0.787152 0.0850617 0.66277
0.813836 0.0833572 0.670365
0.80161 0.0937998 0.674522
0.817314 0.0981578 0.665106
0.802299 0.0859909 0.661375
0.810222 0.0969796 0.665012
0.815291 0.0949813 0.671874
0.828899 0.0855533 0.67594
0.829133 0.0886629 0.667436
0.82568 0.0935137 0.673951
0.838151 0.081014 0.675155
0.839683 0.0982125 0.672064
0.838807 0.0854237 0.676506
0.856319 0.0933125 0.671471
0.853741 0.0968832 0.664557
0.852427 0.0944213 0.675853
0.84719 0.0821117 0.660983
0.85419 0.0834891 0.667444
0.846356 0.091123 0.679521
0.863525 0.0855534 0.663609
0.869208 0.0931258 0.663923
0.875916 0.0919422 0.666902
0.87346 0.0857396 0.66507
0.87815 0.083216 0.677394
0.878012 0.0981142 0.668616
0.111413 0.11501 0.671868
0.107647 0.104019 0.679159
0.119319 0.11135 0.666201
0.1126 0.115807 0.667785
0.102526 0.108407 0.679721
0.102883 0.111207 0.673829
0.130955 0.109273 0.67432
0.125145 0.113967 0.67466
0.122493 0.111197 0.667934
0.134137 0.118625 0.664905
0.126345 0.103689 0.663754
0.134527 0.108745 0.678417
0.15089 0.106242 0.67251
0.145034 0.109277 0.674907
0.156395 0.100489 0.678176
0.151353 0.102769 0.678973
0.140411 0.104454 0.665279
0.159515 0.116556 0.6659
0.164263 0.109343 0.679624
0.168422 0.107403 0.667803
0.161211 0.112501 0.677934
0.178582 0.10769 0.675771
0.170463 0.117049 0.664282
0.165768 0.103448 0.67926
0.193495 0.106186 0.675522
0.181551 0.11375 0.678491
0.184066 0.110464 0.666714
0.196256 0.108273 0.670531
0.197342 0.108669 0.661073
0.184477 0.115494 0.664606
0.216516 0.116359 0.662039
0.206737 0.111529 0.67132
0.207435 0.111331 0.672995
0.203545 0.119691 0.661609
0.213223 0.115784 0.67658
0.218977 0.106644 0.660425
0.233982 0.106038 0.668788
0.22147 0.115545 0.67894
0.22398 0.117548 0.673768
0.232744 0.10805 0.661906
0.235392 0.101415 0.676142
0.221935 0.119206 0.663915
0.257293 0.11467 0.663367
0.244217 0.104896 0.678311
0.247953 0.113728 0.663852
0.242223 0.117783 0.66259
0.241696 0.109457 0.677681
0.242913 0.100333 0.672188
0.260487 0.116414 0.676665
0.262518 0.117786 0.667655
0.269364 0.108823 0.675651
0.268856 0.111474 0.669675
0.267504 0.102645 0.663332
0.274413 0.11503 0.676856
0.286905 0.117327 0.664341
0.291619 0.118309 0.674531
0.287908 0.118998 0.678198
0.290797 0.107894 0.672457
0.281798 0.101919 0.665663
0.282929 0.103259 0.663723
0.308705 0.109409 0.666422
0.307257 0.103566 0.661073
0.314576 0.115306 0.677974
0.300401 0.105294 0.670214
0.317626 0.109343 0.661718
0.304765 0.115561 0.675003
0.331035 0.103686 0.67757
0.329292 0.109242 0.679181
0.336161 0.107931 0.677555
0.331776 0.110902 0.676014
0.330842 0.102663 0.66823
0.333091 0.116018 0.666827
0.346238 0.104377 0.667208
0.352865 0.113303 0.665487
0.352268 0.109147 0.676905
0.344599 0.105526 0.672659
0.352946 0.104351 0.663917
0.346659 0.119125 0.663138
0.363337 0.117709 0.67145
0.365973 0.100245 0.664028
0.365769 0.102802 0.666404
0.367816 0.116989 0.664586
0.373416 0.11151 0.679758
0.366681 0.103114 0.677343
0.388761 0.114156 0.678425
0.394313 0.111392 0.662923
0.384401 0.102913 0.668608
0.386996 0.103784 0.678238
0.38718 0.111332 0.675336
0.388568 0.11863 0.668914
0.408851 0.118695 0.664073
0.40316 0.104877 0.672011
0.400667 0.101598 0.665086
0.408327 0.11266 0.671199
0.410978 0.108189 0.668996
0.401369 0.109374 0.663476
0.437705 0.106819 0.674253
0.437227 0.106942 0.677953
0.437434 0.102232 0.662942
0.42344 0.115212 0.675093
0.421308 0.102927 0.673211
0.420938 0.115987 0.676785
0.448257 0.10535 0.671468
0.457957 0.119589 0.663443
0.458165 0.113175 0.667593
0.457985 0.109604 0.670685
0.447992 0.105356 0.671718
0.451119 0.105163 0.663654
0.472555 0.10203 0.676978
0.462401 0.117085 0.671346
0.477782 0.114633 0.665985
0.4731 0.109506 0.660283
0.476646 0.102812 0.674176
0.473821 0.116651 0.668828
0.488405 0.105198 0.671835
0.490883 0.113821 0.662271
0.481651 0.118336 0.66129
0.491257 0.118852 0.678027
0.497536 0.110817 0.679757
0.499024 0.114442 0.678451
0.514013 0.107394 0.663478
0.513474 0.10632 0.67539
0.504323 0.106545 0.679661
0.500298 0.105943 0.661701
0.519204 0.114732 0.678348
0.508145 0.116387 0.672561
0.520689 0.100276 0.679256
0.527152 0.11814 0.670796
0.520749 0.105351 0.667147
0.524311 0.102641 0.664683
0.529117 0.113456 0.663958
0.520345 0.112124 0.662749
0.54326 0.108503 0.674584
0.54882 0.118652 0.663211
0.547718 0.109039 0.664213
0.548688 0.116453 0.661619
0.548423 0.110514 0.672584
0.544011 0.119392 0.663921
0.567559 0.107846 0.663176
0.573028 0.101614 0.667906
0.570726 0.115342 0.677426
0.571784 0.106315 0.668218
0.578776 0.115327 0.673753
0.5682 0.103112 0.666264
0.587022 0.110276 0.676982
0.591826 0.11437 0.666081
0.586348 0.110464 0.66468
0.593842 0.100346 0.676562
0.593442 0.119046 0.661319
0.596696 0.114927 0.663305
0.611683 0.115949 0.668355
0.606262 0.113849 0.662004
0.603091 0.111954 0.671855
0.615536 0.103078 0.664302
0.61126 0.111187 0.665775
0.610495 0.102103 0.678377
0.631287 0.112 0.66816
0.627179 0.103333 0.667957
0.635637 0.105849 0.662228
0.623256 0.115026 0.676073
0.627031 0.105774 0.678465
0.637058 0.107137 0.670699
0.640446 0.111484 0.670587
0.641183 0.106288 0.669741
0.64671 0.102012 0.679076
0.643993 0.114508 0.673642
0.645121 0.10156 0.667736
0.648201 0.116611 0.666517
0.669665 0.116527 0.673796
0.667217 0.117117 0.660609
0.670673 0.114618 0.661837
0.665824 0.109506 0.676526
0.671162 0.107396 0.665119
0.669069 0.113015 0.679314
0.683905 0.103451 0.667217
0.693426 0.115993 0.660763
0.68266 0.116578 0.677167
0.695647 0.10098 0.672159
0.686918 0.108686 0.673955
0.690821 0.103971 0.672557
0.71149 0.109526 0.677699
0.702305 0.107396 0.67529
0.707663 0.10025 0.663741
0.710281 0.105888 0.675115
0.716946 0.110773 0.6659
0.708337 0.113671 0.677374
0.732239 0.118272 0.66751
0.727793 0.103892 0.661651
0.727722 0.101439 0.660858
0.738502 0.110334 0.671882
0.729183 0.110798 0.673796
0.729416 0.110374 0.661764
0.752971 0.110454 0.675109
0.757955 0.115844 0.662153
0.741797 0.103489 0.662544
0.752108 0.103283 0.672828
0.740978 0.112781 0.673277
0.751107 0.106317 0.678146
0.766685 0.111002 0.679294
0.763117 0.118503 0.672387
0.770986 0.102422 0.672448
0.765344 0.11716 0.675053
0.764233 0.103243 0.669676
0.765191 0.105645 0.663908
0.797694 0.113921 0.664133
0.784767 0.102591 0.667131
0.784668 0.106121 0.674321
0.793625 0.114359 0.672505
0.797204 0.107847 0.665819
0.785719 0.119291 0.671141
0.815612 0.118875 0.676758
0.810293 0.106587 0.666159
0.814804 0.117662 0.679575
0.817843 0.108354 0.668848
0.8013 0.10266 0.676706
0.813139 0.11835 0.668939
0.836113 0.100506 0.675128
0.839635 0.109522 0.67949
0.834032 0.110564 0.664715
0.826668 0.10911 0.667711
0.825523 0.108447 0.675981
0.829748 0.103471 0.673624
0.852923 0.11687 0.678652
0.852666 0.113798 0.665037
0.843325 0.10311 0.676011
0.855912 0.117771 0.673923
0.846496 0.107301 0.671742
0.840889 0.115582 0.669474
0.873965 0.105384 0.67349
0.863933 0.105292 0.679191
0.86146 0.107019 0.674338
0.868281 0.105958 0.675968
0.873112 0.111956 0.674013
0.867377 0.105485 0.661051
0.898142 0.110643 0.662869
0.895257 0.105662 0.679701
0.89915 0.100851 0.662462
0.881959 0.111174 0.665043
0.897894 0.118644 0.672738
0.893855 0.100445 0.678793
0.0967859 0.128512 0.676332
0.0877976 0.123975 0.66032
0.0970753 0.123572 0.67172
0.08425 0.120914 0.677403
0.084016 0.129704 0.668063
0.0961457 0.13121 0.671223
0.104739 0.135881 0.664959
0.111769 0.132472 0.662556
0.115869 0.139326 0.660396
0.114553 0.139459 0.66712
0.104294 0.137967 0.66784
0.100301 0.12756 0.664145
0.13889 0.125944 0.678981
0.134833 0.123534 0.667511
0.132252 0.136745 0.66327
0.122896 0.134656 0.67112
0.123137 0.127652 0.670979
0.124381 0.135932 0.661429
0.154466 0.135935 0.661609
0.142699 0.128267 0.677836
0.147519 0.139754 0.664613
0.152577 0.132772 0.6607
0.159636 0.126045 0.674119
0.145741 0.135524 0.671787
0.160778 0.131153 0.669484
0.160817 0.122355 0.671374
0.169173 0.131757 0.67819
0.162089 0.137009 0.667449
0.162971 0.138879 0.67528
0.177569 0.134721 0.669019
0.181045 0.124616 0.673918
0.180356 0.120496 0.668402
0.184115 0.131644 0.67053
0.188945 0.137158 0.678915
0.194696 0.134888 0.673332
0.186322 0.121083 0.66167
0.202415 0.122252 0.671225
0.204358 0.136204 0.67628
0.202492 0.133346 0.662116
0.203921 0.130561 0.668863
0.204196 0.139469 0.663867
0.206199 0.125795 0.678147
0.237883 0.13579 0.663844
0.232711 0.126754 0.67833
0.226165 0.132753 0.662648
0.22732 0.136365 0.662691
0.223781 0.122376 0.663333
0.227385 0.133946 0.679793
0.256595 0.138737 0.667268
0.25953 0.128607 0.67558
0.241544 0.133296 0.663448
0.24814 0.125202 0.678682
0.254123 0.123696 0.678494
0.249751 0.133332 0.667844
0.266833 0.138854 0.667236
0.2771 0.132171 0.673906
0.263188 0.130483 0.671438
0.263884 0.125216 0.665063
0.268288 0.126908 0.671236
0.265015 0.126913 0.66503
0.296628 0.13425 0.667176
0.296841 0.136169 0.663226
0.293365 0.136009 0.67814
0.295089 0.121346 0.666696
0.295036 0.126119 0.666283
0.286263 0.138617 0.672244
0.316471 0.134697 0.678773
0.319181 0.136536 0.664317
0.318518 0.135895 0.669668
0.301765 0.131464 0.672229
0.309778 0.13931 0.661582
0.319245 0.137334 0.663054
0.329668 0.120202 0.678987
0.331635 0.132334 0.668562
0.323184 0.123449 0.666547
0.326092 0.126527 0.666538
0.330835 0.125048 0.677158
0.334413 0.129539 0.670525
0.344524 0.126938 0.676454
0.343333 0.139302 0.664301
0.354987 0.124001 0.66898
0.342762 0.13239 0.67909
0.343397 0.123882 0.661735
0.357449 0.135792 0.663194
0.371902 0.133228 0.664129
0.36054 0.132755 0.675322
0.364309 0.125572 0.674945
0.365447 0.130249 0.670654
0.366586 0.125141 0.673637
0.374419 0.129348 0.67096
0.384039 0.122474 0.67784
0.384138 0.131578 0.674508
0.388202 0.132496 0.671843
0.390627 0.131588 0.67126
0.38639 0.135354 0.679138
0.381345 0.137106 0.668727
0.400307 0.120726 0.674452
0.405757 0.12345 0.676418
0.415947 0.138004 0.667356
0.415788 0.124469 0.673382
0.41104 0.123683 0.661074
0.409634 0.124701 0.670715
0.435584 0.133153 0.676314
0.421859 0.12812 0.663975
0.436629 0.135129 0.675834
0.434418 0.135363 0.673119
0.436764 0.138833 0.662436
0.425352 0.12204 0.665656
0.444951 0.122193 0.677906
0.451103 0.120768 0.66028
0.451176 0.138101 0.676917
0.451695 0.139371 0.670669
0.449758 0.123946 0.665407
0.445301 0.131173 0.674838
0.473537 0.130994 0.672401
0.471432 0.134697 0.674128
0.478946 0.13922 0.670418
0.472089 0.120734 0.673139
0.475031 0.125694 0.674313
0.473059 0.12396 0.678967
0.494121 0.129276 0.674283
0.499279 0.139258 0.673557
0.498995 0.135553 0.672779
0.483905 0.135881 0.672527
0.49875 0.121779 0.674403
0.488085 0.134718 0.662921
0.502005 0.134473 0.662393
0.502285 0.127278 0.662975
0.501238 0.126338 0.666718
0.503714 0.121746 0.67943
0.500618 0.121205 0.668986
0.507098 0.133275 0.677296
0.524165 0.121041 0.678258
0.525597 0.124344 0.666552
0.532855 0.137963 0.675845
0.521297 0.127164 0.676284
0.523522 0.13513 0.667622
0.522164 0.126813 0.661788
0.554339 0.133658 0.675226
0.546853 0.12652 0.660948
0.553801 0.130748 0.678489
0.552932 0.133239 0.674854
0.555232 0.138748 0.670335
0.552661 0.133502 0.677509
0.574686 0.124589 0.661844
0.561841 0.132718 0.663873
0.564308 0.136117 0.660426
0.57222 0.125961 0.663171
0.561982 0.133741 0.664643
0.576424 0.12973 0.66542
0.580677 0.12689 0.663499
0.594485 0.134193 0.678262
0.582283 0.123968 0.661499
0.595424 0.122355 0.670874
0.59254 0.126468 0.662023
0.591832 0.122443 0.673426
0.610506 0.129129 0.667285
0.619763 0.123495 0.67833
0.618515 0.126138 0.663987
0.601613 0.121192 0.670512
0.603347 0.12298 0.664218
0.619316 0.13363 0.664859
0.623873 0.127852 0.672717
0.639235 0.13711 0.66487
0.623764 0.126764 0.671474
0.625349 0.125824 0.664109
0.637891 0.128705 0.661898
0.638104 0.130882 0.678675
0.656887 0.136384 0.669345
0.659751 0.123431 0.670523
0.642429 0.126131 0.679087
0.650524 0.121926 0.673385
0.643292 0.126971 0.67099
0.655121 0.129322 0.660335
0.662566 0.126631 0.666126
0.67516 0.128753 0.666336
0.668548 0.138789 0.667577
0.666798 0.120909 0.670932
0.662033 0.122122 0.665286
0.661493 0.135484 0.673949
0.693421 0.136208 0.665399
0.690236 0.132402 0.678157
0.69354 0.131865 0.666655
0.698561 0.121032 0.677653
0.690691 0.12302 0.677652
0.696146 0.136326 0.663802
0.706458 0.136728 0.679151
0.718695 0.131228 0.678823
0.707992 0.128706 0.661307
0.718143 0.133769 0.662681
0.715822 0.139024 0.66928
0.715826 0.132276 0.6664
0.739675 0.123635 0.678936
0.72949 0.137869 0.678374
0.722404 0.122963 0.674014
0.724419 0.133282 0.667182
0.733384 0.129648 0.676756
0.737904 0.13856 0.677907
0.749779 0.121095 0.660419
0.750779 0.130483 0.675886
0.754551 0.125447 0.678402
0.756327 0.122772 0.678657
0.755346 0.139302 0.679335
0.743467 0.128149 0.677206
0.775774 0.127783 0.676342
0.77142 0.139613 0.673334
0.776464 0.120257 0.664881
0.772221 0.122024 0.676707
0.777916 0.121733 0.679169
0.76814 0.125047 0.67211
0.796828 0.126154 0.669107
0.785674 0.128597 0.668451
0.782236 0.124846 0.67963
0.784146 0.136606 0.662023
0.783379 0.138842 0.664659
0.794858 0.120731 0.671476
0.806383 0.130612 0.663072
0.80799 0.12347 0.66598
0.815219 0.122852 0.662474
0.807308 0.124498 0.675833
0.815471 0.132725 0.661911
0.812004 0.139499 0.668802
0.826755 0.122696 0.674954
0.829338 0.131702 0.670497
0.821709 0.136791 0.661555
0.839592 0.139556 0.666787
0.833254 0.127074 0.675379
0.825594 0.13955 0.670802
0.859264 0.123029 0.666444
0.845091 0.134688 0.675457
0.85862 0.123108 0.668181
0.840364 0.130817 0.671376
0.856238 0.123577 0.667972
0.848089 0.13208 0.661309
0.874365 0.120325 0.672263
0.869553 0.122106 0.670231
0.866816 0.134485 0.675834
0.874834 0.122156 0.664078
0.870968 0.122013 0.665099
0.878474 0.124045 0.667386
0.884517 0.120375 0.672401
0.886667 0.128861 0.670568
0.887004 0.138967 0.661427
0.888124 0.139148 0.67281
0.881052 0.139625 0.661741
0.885744 0.129286 0.673809
0.909592 0.130792 0.674316
0.916756 0.121934 0.665586
0.911089 0.134024 0.666407
0.916287 0.132575 0.672983
0.919484 0.133486 0.673021
0.915336 0.136481 0.669244
0.0839948 0.156615 0.662776
0.0937948 0.141887 0.678301
0.0944407 0.158306 0.669239
0.0926667 0.142927 0.668226
0.0804173 0.145728 0.660798
0.0989039 0.153082 0.669189
0.112044 0.151631 0.668249
0.119554 0.153761 0.675511
0.114854 0.147813 0.677813
0.107372 0.141695 0.674769
0.113306 0.150749 0.663576
0.116008 0.150754 0.670754
0.136173 0.154247 0.668998
0.13506 0.151111 0.67189
0.139206 0.150941 0.663632
0.130978 0.155523 0.663431
0.132892 0.155498 0.669498
0.12397 0.143244 0.666485
0.148734 0.158349 0.673717
0.152311 0.14845 0.663821
0.159273 0.159037 0.667608
0.155661 0.15869 0.664967
0.146671 0.143575 0.668754
0.154628 0.150246 0.665282
0.169556 0.15697 0.66168
0.175634 0.146919 0.665027
0.163229 0.148911 0.669287
0.166827 0.14621 0.666599
0.173378 0.147623 0.670201
0.174603 0.156127 0.677762
0.196732 0.146726 0.668339
0.186482 0.141278 0.676548
0.184503 0.14961 0.661659
0.184204 0.144976 0.66208
0.192696 0.144587 0.664757
0.186893 0.146524 0.676626
0.219204 0.148994 0.670545
0.20829 0.158763 0.671925
0.215011 0.143903 0.66409
0.207112 0.148557 0.667612
0.200207 0.146597 0.660271
0.21072 0.159216 0.672892
0.226237 0.140775 0.665934
0.225488 0.141116 0.674985
0.229339 0.146515 0.672454
0.236561 0.140307 0.673002
0.231021 0.145312 0.666611
0.237932 0.155169 0.665009
0.251422 0.152781 0.661079
0.245188 0.148224 0.662947
0.241324 0.159234 0.676475
0.257415 0.149243 0.671529
0.241887 0.157198 0.679636
0.248973 0.150821 0.679776
0.265873 0.151781 0.663176
0.279234 0.156325 0.664758
0.27619 0.142356 0.66371
0.272024 0.143596 0.673808
0.279739 0.140837 0.666526
0.26103 0.153896 0.675129
0.284678 0.159772 0.660402
0.28678 0.158171 0.672875
0.285226 0.142611 0.665942
0.284209 0.158275 0.677072
0.284916 0.143778 0.660533
0.288798 0.145063 0.664021
0.318731 0.143225 0.677877
0.310386 0.144995 0.669506
0.316111 0.14142 0.676552
