ply
format ascii 1.0
element vertex 1923
property float x
property float y
property float z
end_header
0.560685 0.862184 2.72152
0.560289 0.883718 2.74338
0.515798 0.877974 2.73161
0.522912 0.857598 2.79702
0.592601 0.824916 2.78875
0.540905 0.826299 2.72024
0.679645 0.825787 2.7321
0.693909 0.83141 2.7225
0.674178 0.845556 2.77599
0.656341 0.842468 2.7365
0.611134 0.848698 2.74344
0.611726 0.891565 2.78173
0.760817 0.861105 2.73862
0.795671 0.890413 2.78842
0.787968 0.841385 2.76444
0.79233 0.866135 2.74807
0.776553 0.843439 2.74019
0.787246 0.812198 2.76042
0.832222 0.828939 2.7466
0.834563 0.853042 2.77882
0.822936 0.874268 2.78847
0.89045 0.856193 2.78633
0.839295 0.843111 2.74248
0.898948 0.824616 2.78456
0.957563 0.844095 2.77585
0.958922 0.809955 2.71066
0.929721 0.882116 2.72926
0.909479 0.809339 2.74275
0.988405 0.86573 2.7654
0.944789 0.8611 2.72208
1.09858 0.898836 2.78171
1.02728 0.871234 2.72579
1.04268 0.862399 2.70338
1.02294 0.875244 2.70885
1.01717 0.829148 2.78283
1.08075 0.853556 2.7875
1.13131 0.870137 2.73285
1.13771 0.870915 2.74339
1.1672 0.824296 2.71877
1.12258 0.891084 2.7312
1.16214 0.810155 2.73107
1.10446 0.834021 2.74237
1.26708 0.869652 2.78252
1.21807 0.813057 2.73825
1.26487 0.884414 2.77909
1.27344 0.898953 2.79289
1.26715 0.890996 2.78859
1.22035 0.818787 2.72329
1.34206 0.821653 2.73157
1.38367 0.854608 2.73806
1.34581 0.822888 2.73345
1.38248 0.816251 2.72123
1.31608 0.884525 2.75729
1.3043 0.831565 2.78569
1.41485 0.847341 2.79692
1.42012 0.868058 2.78017
1.49565 0.856912 2.74281
1.47405 0.870762 2.73104
1.48227 0.895004 2.77119
1.40182 0.867754 2.79551
1.53135 0.804941 2.72699
1.58702 0.820302 2.7539
1.52095 0.864832 2.71712
1.54378 0.816274 2.73175
1.53751 0.816051 2.75575
1.52336 0.832009 2.70451
1.63369 0.859708 2.79367
1.646 0.893372 2.75954
1.66388 0.852033 2.78728
1.60216 0.857925 2.73813
1.69249 0.875396 2.73163
1.65792 0.815273 2.74808
1.77876 0.892185 2.74864
1.72463 0.836873 2.70127
1.7896 0.860088 2.78653
1.73277 0.86697 2.7317
1.75285 0.831161 2.7429
1.75617 0.834007 2.72644
1.8318 0.830114 2.77304
1.84685 0.898393 2.75766
1.89364 0.811318 2.75655
1.80901 0.835065 2.76299
1.86833 0.864837 2.71397
1.82249 0.884778 2.74731
1.99692 0.880351 2.74014
1.98599 0.882204 2.72868
1.90214 0.85408 2.72763
1.91137 0.829013 2.74162
1.9392 0.8972 2.79017
1.97846 0.828412 2.70433
2.00901 0.87367 2.79629
2.07392 0.816834 2.73617
2.07551 0.844394 2.78876
2.02627 0.880352 2.72592
2.072 0.816747 2.73365
2.07963 0.817754 2.717
2.13602 0.855376 2.71761
2.16727 0.803572 2.76003
2.1642 0.894373 2.73423
2.13457 0.803752 2.78227
2.17321 0.837907 2.78836
2.12373 0.872144 2.71362
2.24607 0.815899 2.74511
2.27531 0.851403 2.71384
2.20899 0.859522 2.79357
2.25747 0.84895 2.79769
2.23558 0.890504 2.74699
2.21051 0.880844 2.7788
2.38678 0.829709 2.76678
2.35904 0.805551 2.78928
2.38213 0.833581 2.73637
2.34715 0.826265 2.77
2.35209 0.825595 2.76417
2.39894 0.871661 2.74586
2.4971 0.863843 2.78174
2.48279 0.847326 2.76041
2.46629 0.868747 2.73728
2.4807 0.893808 2.77106
2.43446 0.851354 2.71303
2.41544 0.825218 2.70746
2.54333 0.827172 2.70506
2.55384 0.895856 2.70792
2.52776 0.832794 2.77653
2.52512 0.830898 2.72474
2.50523 0.861378 2.79199
2.567 0.805579 2.74466
2.60185 0.808592 2.74883
2.64029 0.801679 2.74011
2.65441 0.897676 2.73111
2.68999 0.851025 2.70695
2.64699 0.851127 2.75194
2.65955 0.822513 2.71309
2.77502 0.832133 2.72799
2.70836 0.82918 2.73846
2.73035 0.820087 2.75333
2.72438 0.822424 2.72551
2.71143 0.852872 2.76328
2.73332 0.866956 2.75794
2.82593 0.86949 2.74584
2.85402 0.894058 2.79442
2.84212 0.813741 2.72807
2.81286 0.847808 2.72139
2.89367 0.853137 2.73244
2.80837 0.878012 2.70192
2.91613 0.881063 2.7803
2.96258 0.859449 2.77119
2.91807 0.871341 2.7919
2.905 0.819514 2.72603
2.95365 0.884322 2.72451
2.95574 0.84148 2.70138
3.09228 0.854294 2.70103
3.04894 0.823893 2.72015
3.06299 0.837278 2.72513
3.04399 0.817847 2.71501
3.04656 0.841821 2.70949
3.04462 0.852496 2.75265
0.474979 0.490203 2.80796
0.474239 0.492982 2.80953
0.451812 0.419983 2.81409
0.470707 0.457068 2.82297
0.460252 0.404007 2.83018
0.403858 0.467524 2.83642
0.586106 0.460512 2.8611
0.573213 0.482343 2.82401
0.529846 0.411323 2.8599
0.564014 0.474183 2.86158
0.544231 0.453541 2.87692
0.526487 0.43118 2.87741
0.63761 0.461967 2.86984
0.631666 0.458965 2.83098
0.615962 0.453657 2.81453
0.644294 0.46917 2.81496
0.633949 0.423114 2.85497
0.679411 0.478621 2.86254
0.720184 0.479369 2.82811
0.772359 0.462461 2.87286
0.75171 0.472341 2.89236
0.747216 0.469753 2.8514
0.706315 0.426836 2.87275
0.745435 0.487535 2.81494
0.889488 0.447096 2.86218
0.868136 0.401417 2.84755
0.84502 0.459496 2.85313
0.847289 0.429868 2.85175
0.898491 0.418066 2.88399
0.880234 0.442987 2.84877
0.934125 0.432393 2.80454
0.92579 0.408758 2.8829
0.995341 0.481441 2.88293
0.976887 0.415445 2.89167
0.981073 0.453242 2.83293
0.918963 0.403141 2.82681
1.03353 0.40147 2.87178
1.06111 0.408692 2.86393
1.01043 0.40424 2.81379
1.02753 0.408046 2.86039
1.07851 0.477837 2.80191
1.09026 0.451232 2.845
1.13774 0.423328 2.86245
1.12188 0.413041 2.88821
1.19401 0.464626 2.82903
1.18214 0.47014 2.89738
1.18947 0.448508 2.89162
1.1813 0.483749 2.86828
1.22766 0.485999 2.86272
1.26781 0.402644 2.8772
1.23269 0.478292 2.85237
1.27384 0.406885 2.84025
1.24435 0.493848 2.84299
1.25307 0.484611 2.86797
1.35116 0.48722 2.80243
1.30956 0.460445 2.88564
1.36415 0.487258 2.87124
1.37782 0.442828 2.87096
1.39782 0.412284 2.87388
1.3095 0.496577 2.86171
1.41 0.458357 2.81169
1.45629 0.463353 2.87645
1.44703 0.49215 2.80183
1.40819 0.431358 2.86349
1.45728 0.440201 2.8039
1.46588 0.440599 2.86689
1.57382 0.476867 2.87697
1.54838 0.418067 2.85511
1.50872 0.444602 2.84543
1.51877 0.447203 2.84742
1.50835 0.415512 2.83451
1.57278 0.424148 2.85751
1.61599 0.462663 2.89094
1.65807 0.434874 2.83215
1.68971 0.481796 2.84086
1.64153 0.455212 2.85944
1.69861 0.49228 2.84568
1.63183 0.479902 2.8078
1.72336 0.475045 2.83771
1.79732 0.411796 2.8352
1.70618 0.434103 2.86855
1.70159 0.444836 2.80715
1.77496 0.402662 2.8364
1.77709 0.436213 2.80668
1.85393 0.409725 2.81304
1.8956 0.425163 2.8277
1.88323 0.4686 2.80995
1.83836 0.490116 2.83314
1.88642 0.47307 2.80396
1.83385 0.489831 2.82331
1.92021 0.438019 2.83906
1.93456 0.443403 2.80267
1.95692 0.461264 2.81965
1.97901 0.47304 2.84262
1.99402 0.422592 2.83633
1.98676 0.424041 2.81448
2.07138 0.484383 2.82575
2.05458 0.41728 2.88852
2.00106 0.402056 2.86129
2.00838 0.452225 2.84856
2.03168 0.422114 2.8346
2.05795 0.438421 2.80912
2.10791 0.446171 2.85276
2.15601 0.485846 2.80365
2.12335 0.475528 2.81929
2.12181 0.492393 2.88944
2.14405 0.419358 2.8529
2.12541 0.468104 2.85334
2.29698 0.402448 2.86194
2.23362 0.403805 2.83691
2.25272 0.443948 2.87396
2.27038 0.40553 2.80682
2.28 0.418089 2.86078
2.26604 0.456285 2.8951
2.3739 0.47747 2.87232
2.39314 0.459138 2.81042
2.36436 0.488842 2.88169
2.39715 0.463511 2.81869
2.35422 0.483193 2.80855
2.30353 0.468999 2.89433
2.47069 0.464729 2.81633
2.47981 0.447528 2.83044
2.40209 0.435945 2.84476
2.41626 0.487121 2.81064
2.49369 0.485637 2.81514
2.45718 0.415632 2.87787
2.5304 0.421658 2.81347
2.50961 0.423385 2.89834
2.50784 0.455434 2.80138
2.5425 0.45673 2.84656
2.5218 0.459158 2.8126
2.56278 0.46035 2.86581
2.65195 0.48729 2.86187
2.63106 0.426547 2.87731
2.6586 0.446013 2.8846
2.669 0.427538 2.82617
2.67941 0.483189 2.83962
2.68004 0.497901 2.83789
2.71919 0.447328 2.80411
2.74399 0.435571 2.85531
2.75324 0.440207 2.87012
2.70582 0.462368 2.88466
2.76794 0.432449 2.84466
2.75441 0.402259 2.83124
2.89822 0.433307 2.87713
2.81757 0.409385 2.85137
2.82434 0.474691 2.834
2.81274 0.428291 2.85825
2.86195 0.455926 2.81782
2.82075 0.413202 2.83475
2.93128 0.48473 2.86536
2.91919 0.473158 2.84708
2.91153 0.417712 2.80254
2.9067 0.473947 2.89207
2.94563 0.431356 2.80122
2.90585 0.445325 2.87431
3.09405 0.454361 2.80381
3.00384 0.491864 2.89717
3.07435 0.433457 2.89006
3.06262 0.472267 2.88409
3.09305 0.494005 2.82064
3.07283 0.425886 2.88074
0.423209 0.50487 2.82415
0.42256 0.554051 2.82431
0.456593 0.598668 2.89365
0.490098 0.520421 2.87702
0.447438 0.59628 2.8571
0.425495 0.501922 2.87606
0.570563 0.563356 2.8198
0.568572 0.537577 2.81728
0.536917 0.546095 2.80283
0.506539 0.589361 2.88494
0.53132 0.594602 2.86455
0.583099 0.598049 2.86683
0.624985 0.540793 2.86912
0.646093 0.592312 2.85895
0.688404 0.518643 2.80347
0.617505 0.56222 2.80396
0.602437 0.533695 2.89786
0.613147 0.552022 2.86374
0.765008 0.535844 2.89471
0.719915 0.538481 2.83585
0.706163 0.528232 2.83489
0.705037 0.532041 2.87356
0.765923 0.546717 2.89415
0.756116 0.547461 2.87221
0.802138 0.547155 2.83024
0.835054 0.586364 2.88552
0.869002 0.584412 2.8758
0.833863 0.526459 2.80712
0.823237 0.575057 2.80831
0.867146 0.515254 2.86199
0.96256 0.544946 2.85492
0.985151 0.520721 2.84632
0.930202 0.53239 2.81262
0.934709 0.580817 2.80149
0.93316 0.514603 2.88365
0.974528 0.590963 2.8137
1.01513 0.511445 2.84242
1.06268 0.5876 2.80616
1.0384 0.54848 2.84569
1.03569 0.521527 2.86782
1.05978 0.573276 2.84195
1.09736 0.578475 2.89833
1.13365 0.539776 2.80552
1.19827 0.534639 2.8059
1.16384 0.590753 2.88973
1.19141 0.541544 2.82728
1.19523 0.539716 2.85813
1.16397 0.501408 2.86375
1.2072 0.57049 2.89504
1.21024 0.526214 2.85937
1.22708 0.575915 2.88952
1.28928 0.589188 2.82143
1.24741 0.571764 2.86793
1.20988 0.575515 2.84764
1.30294 0.571306 2.85774
1.34427 0.554797 2.84871
1.38458 0.525935 2.8133
1.33141 0.513727 2.86967
1.30673 0.59276 2.83348
1.32522 0.565766 2.86237
1.4238 0.511877 2.88076
1.44466 0.560901 2.84478
1.44323 0.547817 2.806
1.42292 0.585625 2.82608
1.44405 0.54785 2.82759
1.40417 0.501082 2.88119
1.58046 0.574483 2.86138
1.57067 0.591443 2.88326
1.5332 0.525358 2.84648
1.53509 0.569203 2.85315
1.50889 0.503398 2.8192
1.56458 0.597714 2.85858
1.64748 0.508683 2.83374
1.68029 0.596472 2.85327
1.67708 0.560932 2.85878
1.65552 0.524486 2.86585
1.6603 0.58958 2.85514
1.67692 0.515512 2.87003
1.73926 0.516388 2.8188
1.78527 0.578679 2.84334
1.75405 0.529202 2.85662
1.74374 0.578084 2.89532
1.76025 0.560077 2.81508
1.78071 0.58805 2.81859
1.89343 0.567895 2.81559
1.88823 0.558443 2.87826
1.85935 0.563051 2.86097
1.86843 0.509063 2.88556
1.8952 0.586599 2.84449
1.84868 0.597051 2.82837
1.9976 0.554121 2.83806
1.91192 0.545186 2.83755
1.92017 0.517449 2.82266
1.95784 0.575651 2.83071
1.95831 0.506592 2.89588
1.92762 0.569971 2.81558
2.04093 0.597442 2.84513
2.04058 0.581914 2.85445
2.06416 0.555318 2.86857
2.065 0.56413 2.87971
2.05359 0.515035 2.80648
2.07337 0.592901 2.89754
2.17254 0.502659 2.8822
2.17991 0.551635 2.88191
2.18022 0.586354 2.81868
2.11323 0.526756 2.82996
2.15115 0.501383 2.8468
2.15723 0.533801 2.87017
2.23483 0.58699 2.862
2.23158 0.54093 2.87746
2.24572 0.578905 2.8422
2.2582 0.55134 2.89059
2.26383 0.519376 2.81833
2.2594 0.591294 2.87528
2.39112 0.527675 2.82261
2.35425 0.539437 2.86148
2.3484 0.542652 2.83206
2.38041 0.503913 2.85138
2.34608 0.596931 2.81123
2.34804 0.524138 2.89202
2.47496 0.515297 2.87427
2.44581 0.532597 2.81757
2.47791 0.519152 2.85303
2.48086 0.571121 2.80866
2.44305 0.577218 2.84123
2.40215 0.508008 2.81577
2.55687 0.511079 2.83109
2.53293 0.585389 2.87902
2.58402 0.593078 2.82396
2.55321 0.507472 2.81617
2.57779 0.529936 2.89067
2.5409 0.508084 2.89685
2.66755 0.512825 2.82519
2.65599 0.535914 2.85578
2.63241 0.523438 2.83672
2.66761 0.510521 2.80287
2.67228 0.556662 2.87458
2.63996 0.590968 2.80376
2.75708 0.531556 2.87371
2.70263 0.530729 2.8114
2.76451 0.590763 2.84601
2.75751 0.591294 2.86399
2.7532 0.55512 2.88938
2.71982 0.541439 2.85792
2.88042 0.509045 2.83017
2.88997 0.569288 2.8253
2.84894 0.566868 2.89091
2.82775 0.575301 2.86279
2.81555 0.598794 2.87167
2.86717 0.512123 2.88059
2.91352 0.507788 2.87096
2.90951 0.510394 2.81163
2.91769 0.503373 2.81769
2.90674 0.594027 2.86526
2.95242 0.590871 2.80612
2.93269 0.572182 2.81802
3.00415 0.543061 2.81888
3.096 0.553847 2.83102
3.0453 0.539933 2.80641
3.01623 0.572963 2.85632
3.01611 0.583757 2.83552
3.00358 0.517956 2.84167
0.46679 0.654287 2.89317
0.435574 0.607254 2.80603
0.468322 0.694271 2.80491
0.455647 0.620159 2.81185
0.420073 0.618354 2.81423
0.466248 0.682971 2.82237
0.592016 0.677107 2.85646
0.555601 0.624867 2.82944
0.546797 0.610392 2.86209
0.596973 0.608394 2.81401
0.55902 0.617709 2.83038
0.56026 0.637017 2.83221
0.601039 0.644529 2.85222
0.616692 0.620655 2.80984
0.648596 0.634735 2.81207
0.614204 0.66875 2.8177
0.692757 0.60275 2.89777
0.641941 0.629962 2.89155
0.77706 0.674241 2.83263
0.779413 0.616973 2.84075
0.776003 0.672968 2.8233
0.784894 0.625801 2.84109
0.767774 0.605431 2.88603
0.709885 0.663166 2.86747
0.878204 0.623398 2.8716
0.863943 0.607144 2.87026
0.882658 0.647235 2.83747
0.87948 0.617746 2.84645
0.826317 0.639274 2.87009
0.845332 0.612157 2.80416
0.907868 0.693286 2.87497
0.927647 0.666037 2.85451
0.996184 0.614334 2.86136
0.990526 0.656609 2.88522
0.947945 0.628181 2.87302
0.948207 0.626939 2.89893
1.05113 0.613405 2.82661
1.01762 0.652702 2.82226
1.06797 0.604286 2.80969
1.01998 0.624238 2.81439
1.09621 0.66419 2.8782
1.03912 0.681913 2.83784
1.1322 0.624077 2.85839
1.15964 0.641801 2.82558
1.1957 0.62017 2.8114
1.11475 0.678477 2.86421
1.19199 0.603159 2.88945
1.10493 0.602244 2.82936
1.25259 0.698515 2.89092
1.24327 0.675746 2.89221
1.21397 0.635256 2.80883
1.29548 0.609956 2.85684
1.2274 0.656761 2.85846
1.22199 0.698823 2.84052
1.3603 0.675365 2.81752
1.30198 0.616791 2.89382
1.33085 0.647194 2.86945
1.30715 0.646649 2.85552
1.31498 0.673585 2.8116
1.3221 0.634222 2.82548
1.48734 0.632665 2.83813
1.47766 0.690225 2.85271
1.43481 0.615114 2.89691
1.44272 0.690961 2.89103
1.47861 0.604273 2.83538
1.41844 0.655305 2.88753
1.57798 0.625568 2.83512
1.53483 0.697667 2.82429
1.51333 0.69497 2.83661
1.59084 0.606599 2.86931
1.51288 0.621945 2.80773
1.50242 0.680428 2.81378
1.66129 0.627229 2.88992
1.64822 0.607963 2.89319
1.62815 0.632906 2.82428
1.66943 0.606495 2.86989
1.68952 0.642126 2.82362
1.66117 0.67356 2.83557
1.72794 0.670133 2.82328
1.72404 0.675715 2.89843
1.71768 0.686934 2.869
1.7487 0.688118 2.89165
1.79014 0.676641 2.82352
1.74697 0.679741 2.82139
1.88383 0.647075 2.87274
1.81661 0.621397 2.83548
1.83436 0.647851 2.84478
1.81831 0.625701 2.88739
1.88449 0.606627 2.80468
1.89612 0.604855 2.87596
1.97688 0.676784 2.82499
1.99625 0.674203 2.87266
1.93389 0.636496 2.86044
1.91863 0.628654 2.86334
1.91091 0.613421 2.84454
1.97343 0.656605 2.86631
2.03833 0.62063 2.80533
2.03795 0.684127 2.8173
2.05498 0.659626 2.85346
2.06117 0.642065 2.80225
2.08421 0.661944 2.81879
2.01594 0.697499 2.86307
2.15132 0.607612 2.85958
2.19652 0.655711 2.82717
2.17771 0.674788 2.82101
2.1173 0.633441 2.80328
2.11312 0.632501 2.82313
2.12701 0.627665 2.89583
2.26128 0.602978 2.83314
2.2365 0.687169 2.86052
2.27622 0.601902 2.83312
2.25441 0.661775 2.85813
2.21361 0.633816 2.82354
2.27939 0.668681 2.86371
2.39406 0.656452 2.89131
2.39287 0.640393 2.80348
2.37846 0.675546 2.88634
2.35472 0.605495 2.84071
2.37968 0.681706 2.82135
2.3965 0.689121 2.82675
2.47362 0.641138 2.89359
2.43438 0.677679 2.81752
2.44628 0.698327 2.84275
2.49373 0.678548 2.86194
2.41195 0.619396 2.86539
2.44449 0.605447 2.88654
2.55527 0.64684 2.87497
2.54263 0.617401 2.88536
2.5158 0.660361 2.83754
2.51505 0.646184 2.85207
2.58145 0.695967 2.89548
2.54024 0.645368 2.83013
2.63036 0.628256 2.80663
2.60532 0.655984 2.89798
2.61997 0.614868 2.86525
2.68484 0.63961 2.80169
2.60225 0.637209 2.80526
2.6075 0.690657 2.85729
2.73891 0.684981 2.8618
2.73869 0.621592 2.83821
2.78936 0.645759 2.80254
2.77849 0.670038 2.89757
2.79013 0.657775 2.82271
2.75182 0.625177 2.89882
2.89711 0.677446 2.88491
2.86617 0.634134 2.81145
2.82445 0.659758 2.88669
2.86164 0.68017 2.87384
2.87973 0.61569 2.86361
2.85679 0.6845 2.81464
2.96168 0.60281 2.81479
2.93778 0.633558 2.8639
2.96614 0.613838 2.83196
2.96626 0.614821 2.80516
2.91756 0.684097 2.83278
2.99825 0.67976 2.82259
3.06058 0.678955 2.83609
3.07853 0.621194 2.82869
3.08681 0.685936 2.87352
3.07923 0.619762 2.81777
3.04078 0.695843 2.82499
3.04213 0.686871 2.82695
0.408475 0.709554 2.82907
0.402131 0.727145 2.88997
0.407776 0.723798 2.87473
0.4379 0.760344 2.85436
0.402758 0.794516 2.84295
0.479184 0.771882 2.8647
0.519026 0.728708 2.86334
0.564895 0.730201 2.8425
0.547498 0.74409 2.87387
0.529167 0.791715 2.81232
0.519813 0.776707 2.80782
0.519834 0.703299 2.89588
0.608801 0.73876 2.81609
0.668276 0.701964 2.87424
0.627619 0.736567 2.86747
0.646546 0.795913 2.87541
0.689882 0.721841 2.86326
0.67036 0.714242 2.80413
0.768042 0.715551 2.80543
0.779908 0.774362 2.81852
0.761398 0.723338 2.87035
0.733315 0.745701 2.87744
0.751288 0.746754 2.84288
0.795227 0.745646 2.80727
0.835634 0.783029 2.86284
0.838416 0.748183 2.84385
0.802607 0.715466 2.86607
0.829015 0.729224 2.87023
0.851476 0.753261 2.82346
0.872688 0.730238 2.86829
0.996907 0.781667 2.85948
0.983514 0.748367 2.86109
0.987437 0.715372 2.85229
0.978225 0.790974 2.87311
0.95789 0.745683 2.87396
0.930615 0.774459 2.89762
1.06968 0.756112 2.89596
1.06786 0.713362 2.82451
1.06218 0.757434 2.86187
1.00253 0.781257 2.86161
1.05553 0.707156 2.8512
1.09319 0.711882 2.89307
1.19283 0.758116 2.80878
1.10541 0.718828 2.8516
1.13054 0.727677 2.89472
1.16687 0.732578 2.80769
1.19617 0.768714 2.85288
1.17886 0.702421 2.82557
1.2352 0.702288 2.84038
1.29503 0.707113 2.80294
1.25316 0.702343 2.80444
1.29533 0.741354 2.89436
1.24448 0.723478 2.82308
1.25322 0.787685 2.88812
1.36958 0.770769 2.82741
1.3451 0.791136 2.81593
1.36659 0.746667 2.81962
1.32273 0.770885 2.87836
1.31686 0.781035 2.87427
1.38695 0.724635 2.84676
1.45946 0.714855 2.8772
1.43504 0.796266 2.89828
1.46478 0.773746 2.88029
1.40669 0.760956 2.8656
1.47008 0.7573 2.82074
1.47312 0.79128 2.81457
1.51311 0.72385 2.86127
1.54064 0.712544 2.89074
1.54233 0.738457 2.80199
1.5124 0.796749 2.8272
1.51508 0.759439 2.87718
1.51776 0.751172 2.85187
1.67424 0.709319 2.88399
1.69124 0.752123 2.88734
1.67458 0.733017 2.88123
1.61118 0.763168 2.83737
1.63043 0.75748 2.8644
1.6065 0.718205 2.87057
1.7673 0.756884 2.83614
1.72397 0.773232 2.80701
1.74446 0.738349 2.83522
1.70947 0.782472 2.80268
1.70145 0.740828 2.87691
1.70993 0.776249 2.85365
1.87773 0.721676 2.87379
1.8843 0.743789 2.88222
1.82475 0.756787 2.83784
1.84105 0.737994 2.85902
1.818 0.786086 2.88528
1.81293 0.706074 2.86291
1.94072 0.762234 2.84288
1.91541 0.795116 2.83494
1.99741 0.703443 2.8724
1.99677 0.731364 2.84829
1.91319 0.7815 2.86381
1.98653 0.763839 2.82213
2.00826 0.712062 2.84654
2.09562 0.784521 2.81944
2.09555 0.781891 2.87194
2.08297 0.707212 2.86148
2.03589 0.782121 2.81681
2.07589 0.765657 2.81534
2.11131 0.796346 2.8379
2.16137 0.751283 2.89807
2.17813 0.731716 2.83053
2.10718 0.736652 2.85994
2.1966 0.767363 2.84877
2.1963 0.748146 2.87404
2.26588 0.712162 2.88847
2.28359 0.713983 2.85238
2.26573 0.727307 2.87389
2.26678 0.737826 2.87936
2.22226 0.736699 2.83326
2.25565 0.795015 2.87508
2.32425 0.702322 2.8114
2.3842 0.706478 2.88852
2.33433 0.773468 2.8901
2.32302 0.723284 2.88587
2.33344 0.789123 2.86082
2.36024 0.732396 2.86133
2.4787 0.794526 2.81453
2.4558 0.71491 2.8936
2.43566 0.733315 2.86489
2.48032 0.763167 2.89003
2.45855 0.746655 2.88696
2.42539 0.778033 2.8621
2.57579 0.780122 2.81215
2.52207 0.741764 2.87401
2.58703 0.727518 2.83399
2.58917 0.705961 2.83394
2.56227 0.719655 2.83386
2.51189 0.703333 2.81886
2.61076 0.759838 2.8405
2.6271 0.707344 2.86796
2.60251 0.775396 2.81394
2.69832 0.705283 2.81451
2.68826 0.72985 2.85439
2.61892 0.72099 2.83286
2.70607 0.731072 2.83692
2.75304 0.704427 2.85142
2.74798 0.718 2.80763
2.72038 0.71048 2.83298
2.78183 0.713585 2.8988
2.77224 0.765967 2.84265
2.88732 0.755962 2.83427
2.81696 0.79509 2.83789
2.83879 0.70132 2.84293
2.8529 0.740285 2.88608
2.82626 0.727738 2.82287
2.89704 0.726814 2.83082
2.9144 0.764311 2.84353
2.98435 0.708987 2.8904
2.95161 0.782747 2.82011
2.92379 0.783713 2.8685
2.99107 0.777533 2.83385
2.90739 0.760178 2.80143
3.06699 0.723227 2.88343
3.0136 0.765824 2.8076
3.01605 0.70891 2.86312
3.08953 0.748078 2.88932
3.02784 0.704896 2.86465
3.03076 0.728903 2.88103
0.427865 0.804626 2.85276
0.439875 0.874691 2.83066
0.487743 0.864984 2.88876
0.45851 0.869897 2.889
0.457743 0.808011 2.82637
0.421079 0.882584 2.8175
0.593639 0.887999 2.82078
0.542957 0.817996 2.86207
0.510323 0.892229 2.88362
0.575899 0.81214 2.85172
0.558239 0.868106 2.86474
0.571832 0.877586 2.87813
0.645426 0.865957 2.82121
0.606212 0.872147 2.87984
0.664082 0.846564 2.84857
0.661007 0.851758 2.81315
0.695072 0.810679 2.88191
0.690963 0.815194 2.87026
0.777313 0.848221 2.83152
0.763057 0.868573 2.86422
0.756587 0.842988 2.8916
0.773097 0.897543 2.85679
0.76324 0.837804 2.82836
0.790854 0.865306 2.82093
0.880361 0.880373 2.82492
0.852062 0.874422 2.8791
0.885841 0.825365 2.84424
0.887628 0.851509 2.83512
0.884983 0.874509 2.81803
0.866042 0.876989 2.88619
0.985383 0.852992 2.87609
0.957062 0.871742 2.86442
0.990515 0.83338 2.80465
0.923316 0.811908 2.85384
0.914852 0.843621 2.83645
0.964459 0.871724 2.87583
1.08375 0.80368 2.81004
1.06597 0.886212 2.80395
1.08005 0.825866 2.83079
1.098 0.813251 2.86309
1.06319 0.891337 2.85923
1.05434 0.877184 2.85697
1.15109 0.830935 2.85504
1.13009 0.896122 2.8224
1.13929 0.847214 2.86774
1.12657 0.846886 2.84508
1.13669 0.852328 2.86441
1.19728 0.824154 2.87763
1.23186 0.872694 2.86929
1.20309 0.839559 2.89047
1.25587 0.80279 2.86555
1.25378 0.812466 2.85412
1.2847 0.834789 2.82816
1.25804 0.864501 2.82854
1.39512 0.81119 2.84614
1.32306 0.864375 2.81384
1.33034 0.809912 2.82082
1.38219 0.862542 2.85589
1.3914 0.875912 2.80607
1.35155 0.891942 2.80928
1.49661 0.803043 2.88261
1.45373 0.805231 2.84449
1.49365 0.87535 2.83247
1.40446 0.814796 2.81063
1.42412 0.827827 2.84256
1.49334 0.895307 2.82997
1.56577 0.877353 2.85577
1.5678 0.859958 2.80571
1.53441 0.838444 2.83114
1.59213 0.813085 2.87597
1.57123 0.884238 2.85706
1.57585 0.870842 2.8682
1.69874 0.889105 2.81961
1.68904 0.89641 2.82191
1.67562 0.874507 2.87133
1.61344 0.844077 2.81071
1.65854 0.845165 2.88172
1.67921 0.897667 2.85899
1.73297 0.833655 2.84575
1.77855 0.812078 2.80735
1.75987 0.875533 2.80371
1.72307 0.829627 2.89131
1.79577 0.85313 2.82782
1.71771 0.898916 2.81475
1.8976 0.807749 2.88201
1.85438 0.809032 2.81928
1.87407 0.838102 2.88861
1.88478 0.821383 2.88952
1.86131 0.875191 2.83786
1.83513 0.821175 2.89194
1.90781 0.871448 2.89187
1.90633 0.880137 2.82552
1.98821 0.88911 2.82429
1.99262 0.82993 2.80244
1.94637 0.863824 2.88755
1.95871 0.845261 2.8863
2.03814 0.828624 2.85858
2.02412 0.879317 2.8809
2.0065 0.808061 2.83406
2.03127 0.880973 2.89268
2.05831 0.882471 2.83992
2.02743 0.845259 2.83231
2.1473 0.861765 2.81888
2.15633 0.893562 2.83428
2.15264 0.832859 2.82515
2.18268 0.822785 2.88211
2.17481 0.839242 2.89235
2.18751 0.893423 2.81139
2.26069 0.801617 2.86241
2.20384 0.862875 2.87658
2.22545 0.838879 2.80207
2.29651 0.82516 2.89165
2.29053 0.82441 2.8427
2.21887 0.815088 2.87644
2.37541 0.821192 2.85684
2.34022 0.819892 2.80406
2.38918 0.874938 2.82206
2.34619 0.851897 2.86625
2.34027 0.89041 2.80129
2.36201 0.864409 2.87745
2.44129 0.818005 2.83165
2.48625 0.844792 2.87191
2.4019 0.806257 2.85667
2.47752 0.882144 2.83837
2.48965 0.82807 2.8068
2.45667 0.802521 2.87916
2.52233 0.888481 2.88634
2.58232 0.853905 2.84806
2.50351 0.808338 2.84654
2.51634 0.852621 2.82359
2.57106 0.801113 2.87247
2.54411 0.816981 2.82637
2.61988 0.886409 2.82759
2.69614 0.827552 2.86014
2.66723 0.861564 2.82189
2.67103 0.84124 2.81232
2.61327 0.84299 2.81991
2.64808 0.841156 2.88014
2.72915 0.822186 2.84188
2.74537 0.895451 2.87347
2.73556 0.880565 2.87381
2.71905 0.826751 2.8792
2.75354 0.834423 2.86215
2.75872 0.831629 2.81574
2.81838 0.811055 2.85318
2.88484 0.887906 2.82381
2.88923 0.864859 2.85473
2.80309 0.804261 2.84668
2.84691 0.846825 2.86734
2.87017 0.809186 2.894
2.9865 0.859758 2.82229
2.90801 0.864628 2.88649
2.97318 0.801118 2.82219
2.92208 0.847768 2.85526
2.96876 0.866133 2.81694
2.96915 0.846321 2.85201
3.09784 0.810703 2.88252
3.08894 0.87804 2.84602
3.07947 0.883522 2.86848
3.0577 0.89123 2.88673
3.01509 0.833256 2.87373
3.04784 0.813534 2.8051
0.464827 0.418515 2.92833
0.460021 0.478031 2.93897
0.408921 0.446448 2.94303
0.403606 0.412633 2.94119
0.473672 0.403655 2.98615
0.487796 0.477477 2.96827
0.552712 0.476698 2.97074
0.584769 0.404752 2.97676
0.574385 0.470778 2.95673
0.531011 0.443943 2.93947
0.553909 0.417128 2.95279
0.555255 0.41541 2.92203
0.663276 0.416001 2.90664
0.63967 0.45108 2.96024
0.686577 0.458979 2.94061
0.626395 0.454127 2.90607
0.678343 0.412538 2.95914
0.654965 0.46996 2.9647
0.792204 0.427783 2.92765
0.789921 0.469365 2.97187
0.739198 0.491001 2.97162
0.763385 0.483745 2.9188
0.710735 0.451994 2.94301
0.711003 0.413599 2.94631
0.81127 0.428017 2.92758
0.810683 0.414983 2.93668
0.851313 0.465749 2.98064
0.888933 0.487548 2.9288
0.845697 0.436122 2.96859
0.858786 0.44514 2.99572
0.939691 0.428296 2.92218
0.984767 0.457131 2.96981
0.936397 0.480745 2.97203
0.943286 0.409633 2.97819
0.981997 0.497346 2.97333
0.958444 0.495494 2.97249
1.08124 0.405477 2.94373
1.0359 0.456625 2.93861
1.01905 0.492752 2.95704
1.05376 0.49502 2.99619
1.08319 0.411795 2.92492
1.0109 0.407916 2.92424
1.12234 0.460873 2.95435
1.14335 0.488942 2.94869
1.12309 0.45942 2.92209
1.16491 0.463118 2.94774
1.1772 0.426078 2.93989
1.18374 0.4176 2.94893
1.20189 0.435129 2.90873
1.24422 0.407918 2.90479
1.27436 0.464351 2.94468
1.21938 0.481025 2.93289
1.27998 0.429305 2.91666
1.2897 0.455362 2.96756
1.3581 0.459344 2.9145
1.31337 0.488434 2.98427
1.32145 0.466951 2.96901
1.39643 0.479261 2.91232
1.33704 0.441408 2.94482
1.37042 0.412457 2.96422
1.47888 0.436392 2.97632
1.49873 0.429878 2.97452
1.41525 0.470594 2.90148
1.42155 0.454623 2.9159
1.49346 0.408106 2.91303
1.46922 0.40897 2.96332
1.52656 0.431083 2.92774
1.56852 0.445139 2.95741
1.59729 0.421028 2.90385
1.52144 0.445106 2.93028
1.57246 0.419083 2.91814
1.59401 0.491388 2.95289
1.68558 0.436327 2.99468
1.67727 0.406234 2.95206
1.60675 0.46596 2.95507
1.64388 0.419152 2.97666
1.60224 0.463088 2.92052
1.65863 0.428902 2.9864
1.72926 0.477019 2.94304
1.73106 0.418749 2.95355
1.70175 0.483551 2.9817
1.70925 0.483598 2.93574
1.73068 0.419301 2.97855
1.74553 0.424463 2.90576
1.88297 0.413092 2.93506
1.88518 0.432481 2.91359
1.80969 0.429842 2.93795
1.84845 0.466913 2.96555
1.87793 0.437541 2.91985
1.81675 0.443736 2.93868
1.93819 0.40948 2.91215
1.93145 0.419524 2.96703
1.90795 0.476435 2.98549
1.99168 0.465992 2.95475
1.93821 0.46279 2.96148
1.92165 0.424924 2.96248
2.07399 0.480618 2.97543
2.08141 0.479742 2.97124
2.06668 0.401501 2.97861
2.01208 0.492254 2.94167
2.06068 0.495557 2.96111
2.02665 0.436392 2.99889
2.10489 0.459727 2.98543
2.15485 0.419887 2.91762
2.168 0.446975 2.90691
2.10876 0.426181 2.98567
2.19021 0.457483 2.97718
2.11679 0.451766 2.98469
2.24562 0.405995 2.95636
2.2184 0.44233 2.92503
2.22278 0.473848 2.95361
2.26228 0.401678 2.93983
2.28219 0.43891 2.97172
2.26758 0.420516 2.99315
2.38377 0.40708 2.91117
2.39733 0.48686 2.90398
2.31351 0.454544 2.98511
2.39084 0.490458 2.90722
2.31917 0.444857 2.90612
2.36529 0.421452 2.95855
2.49898 0.453146 2.99864
2.40445 0.424287 2.92775
2.461 0.452596 2.94075
2.4466 0.485477 2.93042
2.46652 0.443011 2.96197
2.48919 0.433002 2.94402
2.50411 0.466755 2.91791
2.51065 0.408998 2.95618
2.57159 0.497909 2.94856
2.50843 0.433906 2.99291
2.51071 0.402674 2.94097
2.53807 0.467023 2.99421
2.65621 0.411397 2.98869
2.60654 0.452092 2.9823
2.60126 0.487176 2.91855
2.6635 0.497256 2.96451
2.62147 0.461117 2.95639
2.64527 0.462276 2.9642
2.77907 0.466281 2.9949
2.79471 0.404827 2.91414
2.79224 0.483329 2.97453
2.79444 0.438571 2.9656
2.71861 0.485171 2.90314
2.77054 0.42104 2.9412
2.88456 0.432305 2.93693
2.81304 0.480981 2.99822
2.89404 0.415895 2.94718
2.82149 0.435151 2.99704
2.84868 0.497814 2.95411
2.88276 0.424467 2.98186
2.90594 0.4512 2.93368
2.96289 0.411569 2.96637
2.97683 0.445368 2.92533
2.97426 0.414897 2.97583
2.91834 0.44096 2.91292
2.92098 0.441695 2.90845
3.04825 0.423746 2.91817
3.0021 0.459162 2.96191
3.01886 0.474074 2.92897
3.04555 0.464998 2.9588
3.09171 0.445534 2.98765
3.0597 0.495469 2.90681
0.434739 0.517896 2.99786
0.423409 0.598234 2.97597
0.492002 0.513032 2.93627
0.492981 0.556756 2.95135
0.465875 0.519232 2.91976
0.476063 0.512626 2.94395
0.574012 0.506478 2.91813
0.535367 0.551748 2.939
0.525255 0.581735 2.91348
0.564092 0.590272 2.96151
0.506497 0.547677 2.9376
0.555964 0.590405 2.99002
0.631981 0.531593 2.98967
0.609809 0.511461 2.94512
0.604786 0.544217 2.96938
0.694997 0.509303 2.93332
0.612759 0.519608 2.92059
0.631469 0.522807 2.91151
0.731124 0.566013 2.95624
0.770674 0.59657 2.98498
0.744456 0.512683 2.94035
0.714134 0.529003 2.90969
0.701291 0.580031 2.99295
0.71584 0.512971 2.94276
0.819107 0.506241 2.97851
0.84164 0.567177 2.98473
0.856798 0.596264 2.94756
0.865461 0.542774 2.9375
0.843182 0.522711 2.9668
0.893406 0.574453 2.97117
0.968227 0.588741 2.98637
0.930109 0.527337 2.93658
0.963749 0.581117 2.93058
0.969245 0.588142 2.9947
0.941656 0.539615 2.93272
0.937653 0.585745 2.99202
1.01229 0.519689 2.93807
1.04738 0.57939 2.9473
1.03642 0.569681 2.98063
1.06911 0.556336 2.97913
1.01199 0.546052 2.9371
1.08134 0.536851 2.90701
1.14741 0.547483 2.90524
1.1239 0.567241 2.91018
1.10164 0.538247 2.92649
1.18753 0.571045 2.95653
1.10307 0.522694 2.96427
1.11036 0.58163 2.92097
1.27751 0.5555 2.9142
1.22591 0.569414 2.9208
1.21069 0.589808 2.97685
1.20985 0.541911 2.98145
1.26185 0.597213 2.95726
1.27129 0.535039 2.96642
1.30697 0.532037 2.92002
1.38387 0.547049 2.95408
1.33945 0.586346 2.98805
1.31757 0.504199 2.90375
1.30251 0.555799 2.9906
1.32786 0.570224 2.91106
1.44595 0.580117 2.96804
1.4145 0.514895 2.92908
1.41192 0.522502 2.90446
1.48468 0.589219 2.91142
1.46526 0.589859 2.98818
1.45884 0.568557 2.9688
1.58905 0.548438 2.93125
1.59524 0.509657 2.93858
1.59127 0.589055 2.97758
1.54284 0.509208 2.93504
1.55827 0.572593 2.96719
1.5699 0.556325 2.94301
1.62482 0.543296 2.94141
1.62201 0.522744 2.92934
1.64255 0.502243 2.98286
1.61642 0.551589 2.94872
1.62604 0.533087 2.9471
1.62055 0.55552 2.97918
1.7173 0.548764 2.96008
1.77557 0.590657 2.97596
1.74165 0.581245 2.95507
1.75677 0.518096 2.94874
1.79736 0.593789 2.95612
1.7217 0.540738 2.94433
1.80233 0.592754 2.96901
1.85254 0.568591 2.90796
1.80884 0.513623 2.91198
1.87567 0.598655 2.92942
1.89255 0.593 2.99733
1.81989 0.57634 2.98986
1.90728 0.5609 2.98025
1.93183 0.513982 2.93724
1.96385 0.534437 2.90483
1.96277 0.565319 2.9587
1.9404 0.520444 2.91568
1.9196 0.573953 2.94775
2.09019 0.536629 2.99409
2.04477 0.54277 2.97528
2.04062 0.584656 2.94154
2.07301 0.523831 2.93613
2.01626 0.517583 2.93454
2.06796 0.571379 2.93185
2.10804 0.543822 2.97571
2.11472 0.589365 2.99855
2.15933 0.580352 2.91349
2.139 0.555135 2.94059
2.1376 0.520229 2.98893
2.16905 0.589059 2.92763
2.29744 0.526153 2.93598
2.20888 0.554107 2.91589
2.2448 0.518001 2.95706
2.27339 0.547304 2.94232
2.29148 0.525322 2.92924
2.23896 0.588311 2.93632
2.3918 0.508952 2.9798
2.31255 0.531532 2.97964
2.33255 0.520575 2.99019
2.33333 0.548733 2.94336
2.39855 0.59175 2.96982
2.34226 0.587068 2.93062
2.4695 0.538879 2.98684
2.48185 0.524948 2.98177
2.40174 0.523584 2.95127
2.47118 0.585452 2.9555
2.46371 0.530644 2.95108
2.41218 0.554854 2.92845
2.51601 0.553479 2.93407
2.51302 0.587943 2.95692
2.54485 0.570523 2.91231
2.54118 0.598282 2.92872
2.55148 0.584617 2.91673
2.51091 0.568601 2.939
2.69101 0.593239 2.99619
2.61169 0.584768 2.93202
2.60469 0.554482 2.98738
2.69872 0.593011 2.98847
2.66886 0.573014 2.99322
2.60816 0.553517 2.96618
2.75919 0.558464 2.92425
2.70633 0.543566 2.98208
2.73006 0.512736 2.94055
2.7113 0.538556 2.92422
2.76231 0.540356 2.93707
2.72451 0.52937 2.99866
2.84406 0.505178 2.95996
2.82332 0.575232 2.98366
2.87341 0.566472 2.91522
2.86527 0.545558 2.96887
2.86746 0.584979 2.93578
2.8601 0.590444 2.97798
2.9258 0.513613 2.92186
2.99151 0.555366 2.98738
2.95239 0.590577 2.9921
2.91032 0.510364 2.90494
2.9414 0.52488 2.91708
2.90627 0.581512 2.99401
3.02634 0.591874 2.95625
3.02183 0.573232 2.98969
3.06166 0.514078 2.92621
3.05642 0.589364 2.92906
3.03281 0.557978 2.91544
3.08211 0.597218 2.93736
0.497353 0.660246 2.93828
0.486913 0.608359 2.91208
0.463024 0.625769 2.90744
0.459979 0.672299 2.97572
0.463953 0.607779 2.98775
0.436314 0.605616 2.90851
0.552939 0.618252 2.90684
0.534424 0.630188 2.96249
0.516368 0.63054 2.94718
0.506914 0.639259 2.91628
0.568286 0.618886 2.97448
0.548577 0.624143 2.9225
0.612521 0.665921 2.91727
0.633315 0.636564 2.98075
0.673315 0.607984 2.92266
0.697557 0.627824 2.99759
0.61661 0.618835 2.97548
0.639367 0.607395 2.99002
0.737764 0.687504 2.91087
0.784294 0.654396 2.92338
0.793877 0.67011 2.94561
0.748573 0.640126 2.91014
0.77774 0.606161 2.97832
0.769354 0.611113 2.90375
0.820118 0.647195 2.97482
0.888554 0.621666 2.99045
0.838861 0.687526 2.95737
0.817081 0.638364 2.97916
0.857516 0.631952 2.94398
0.847774 0.601502 2.98042
0.948668 0.648905 2.92721
0.921908 0.672878 2.90119
0.947956 0.637264 2.98527
0.959343 0.656618 2.94536
0.941801 0.671777 2.91235
0.936509 0.6983 2.9282
1.08427 0.629681 2.90522
1.04012 0.657143 2.98731
1.08224 0.687302 2.94292
1.0485 0.689 2.90795
1.07616 0.634618 2.99686
1.0721 0.677695 2.91611
1.16718 0.626791 2.93039
1.17447 0.617307 2.93152
1.14736 0.674163 2.92151
1.16897 0.611982 2.9548
1.17968 0.680985 2.97593
1.10545 0.621489 2.96351
1.23351 0.613263 2.98572
1.23172 0.691387 2.92856
1.24655 0.64328 2.96206
1.22747 0.636839 2.99264
1.29521 0.660669 2.94603
1.28851 0.619824 2.99781
1.36404 0.688028 2.94885
1.32485 0.660351 2.901
1.38241 0.6571 2.95408
1.34302 0.611528 2.97155
1.32463 0.60319 2.98412
1.37492 0.604356 2.90975
1.47889 0.680019 2.99669
1.48172 0.6831 2.94344
1.41608 0.682059 2.93519
1.42037 0.667467 2.97998
1.49379 0.619378 2.97659
1.42748 0.634026 2.98076
1.52203 0.647817 2.94095
1.5669 0.656216 2.98924
1.5663 0.63331 2.9449
1.57257 0.616029 2.98136
1.57721 0.611401 2.96788
1.54208 0.697641 2.97249
1.68907 0.684836 2.91848
1.65122 0.684009 2.97761
1.69575 0.63094 2.9437
1.67095 0.632583 2.9893
1.63321 0.680415 2.97146
1.64131 0.662328 2.95373
1.71248 0.693912 2.9689
1.7365 0.679784 2.98613
1.7959 0.661899 2.97089
1.77399 0.656063 2.97319
1.79469 0.656994 2.9754
1.70832 0.679142 2.91887
1.87829 0.639187 2.92536
1.80187 0.671017 2.95482
1.81122 0.624048 2.94325
1.8546 0.68183 2.99184
1.80687 0.624007 2.92463
1.88253 0.611557 2.97218
1.9622 0.608418 2.98899
1.93857 0.671363 2.94898
1.90169 0.627604 2.95215
1.95451 0.692369 2.92102
1.99137 0.601683 2.99618
1.95344 0.617779 2.90112
2.01095 0.693055 2.92323
2.05595 0.66872 2.97465
2.03557 0.636907 2.90795
2.00239 0.628694 2.96858
2.01159 0.668698 2.92746
2.03105 0.653842 2.91014
2.13818 0.612904 2.96437
2.13103 0.689018 2.97014
2.13161 0.632113 2.98878
2.11286 0.675352 2.9252
2.1344 0.601349 2.98003
2.1079 0.624698 2.99637
2.23015 0.60272 2.94009
2.23378 0.627641 2.96382
2.26081 0.618592 2.91741
2.26115 0.659448 2.90691
2.21452 0.633476 2.96683
2.2844 0.692349 2.96811
2.33662 0.661067 2.92009
2.32667 0.619792 2.94733
2.34512 0.668446 2.92448
2.35309 0.630309 2.91022
2.30268 0.614645 2.92668
2.39033 0.66089 2.93177
2.46568 0.677418 2.95216
2.42362 0.62184 2.94051
2.46387 0.65628 2.96994
2.41787 0.666067 2.91197
2.46805 0.645002 2.94509
2.4725 0.640979 2.94419
2.50533 0.69041 2.90749
2.5242 0.652059 2.98554
2.50355 0.66198 2.99776
2.56107 0.662021 2.93725
2.52761 0.611967 2.94533
2.54187 0.690895 2.91172
2.64767 0.614402 2.90901
2.61999 0.629542 2.95688
2.63085 0.68835 2.98872
2.65581 0.636437 2.91426
2.6455 0.601955 2.91596
2.66135 0.607463 2.93845
2.71463 0.687504 2.98848
2.70529 0.656271 2.95997
2.71841 0.667405 2.96066
2.75154 0.644743 2.91769
2.74527 0.666189 2.99037
2.7526 0.612767 2.93872
2.86576 0.638227 2.98018
2.82187 0.644649 2.98596
2.8922 0.685044 2.97356
2.86117 0.651232 2.95655
2.83506 0.639189 2.96048
2.83248 0.67536 2.91627
2.99024 0.683307 2.99574
2.94477 0.698879 2.91901
2.9967 0.645358 2.98626
2.97242 0.636468 2.96261
2.96937 0.69372 2.95715
2.98412 0.637379 2.91344
3.08167 0.694429 2.92886
3.03002 0.659488 2.97288
3.07014 0.680515 2.98672
3.0589 0.6795 2.92756
3.03635 0.658307 2.98236
3.07471 0.652321 2.98273
0.443686 0.765756 2.97634
0.454664 0.767969 2.95803
0.401943 0.767657 2.93319
0.460548 0.767392 2.98715
0.467474 0.757657 2.92349
0.485708 0.73399 2.9817
0.518101 0.774695 2.91092
0.520994 0.762989 2.99351
0.516817 0.718348 2.91866
0.551178 0.782299 2.91731
0.539819 0.74718 2.9045
0.536589 0.702994 2.91509
0.668729 0.751666 2.93692
0.665978 0.757858 2.93664
0.625654 0.755735 2.97387
0.654577 0.722123 2.95847
0.690008 0.715977 2.94552
0.691013 0.767423 2.93201
0.788821 0.740577 2.92529
0.723041 0.793527 2.96245
0.704956 0.786615 2.96288
0.775531 0.793768 2.90754
0.721089 0.733713 2.90617
0.712823 0.746232 2.95382
0.880747 0.733598 2.99021
0.832619 0.707089 2.96844
0.890123 0.780371 2.90102
0.839115 0.707173 2.90568
0.886478 0.708696 2.93876
0.862093 0.726634 2.93123
0.928885 0.715192 2.99614
0.956082 0.794647 2.91124
0.913897 0.77131 2.99685
0.912036 0.778031 2.93237
0.93113 0.78224 2.99656
0.915147 0.789272 2.95803
1.08928 0.748881 2.96719
1.04515 0.741798 2.92022
1.04298 0.773839 2.93332
1.088 0.742311 2.99579
1.04526 0.734201 2.90628
1.07392 0.759325 2.91378
1.18716 0.785836 2.97641
1.13317 0.786678 2.96351
1.15877 0.70712 2.97541
1.1677 0.706368 2.98253
1.1163 0.720476 2.98978
1.17857 0.712687 2.91701
1.22215 0.778765 2.98812
1.22452 0.719022 2.95734
1.2539 0.768522 2.93082
1.24365 0.786711 2.95507
1.20898 0.762659 2.9176
1.26163 0.770873 2.98717
1.37415 0.774083 2.98831
1.38186 0.761214 2.92858
1.33028 0.724803 2.94689
1.331 0.759637 2.9155
1.35748 0.767795 2.95905
1.37859 0.740588 2.98022
1.44442 0.768761 2.92855
1.47582 0.753631 2.96461
1.49012 0.783367 2.94522
1.43236 0.733415 2.98908
1.43881 0.730189 2.96568
1.4089 0.777127 2.94542
1.59706 0.729895 2.95563
1.59036 0.777031 2.98607
1.53816 0.707663 2.98446
1.57582 0.760289 2.99425
1.57121 0.737967 2.99824
1.51482 0.705094 2.98168
1.61879 0.729622 2.90569
1.67439 0.728864 2.93663
1.61819 0.703174 2.92589
1.67691 0.709374 2.98953
1.66745 0.742099 2.99473
1.67035 0.712974 2.91671
1.78205 0.769206 2.97577
1.77847 0.787679 2.97996
1.74833 0.771699 2.91968
1.77353 0.766635 2.91396
1.71073 0.730088 2.92657
1.77894 0.741094 2.94837
1.89619 0.789543 2.92013
1.80604 0.789521 2.96012
1.80903 0.726032 2.98841
1.82392 0.777843 2.97213
1.89508 0.725029 2.96941
1.86783 0.771096 2.99603
1.94338 0.751826 2.90371
1.96814 0.760504 2.91435
1.91773 0.741515 2.97718
1.93753 0.729514 2.93538
1.92541 0.748092 2.94803
1.97728 0.704135 2.9186
2.03616 0.747396 2.93947
2.01465 0.759444 2.91456
2.08508 0.784607 2.90949
2.07727 0.763298 2.94171
2.09507 0.710745 2.968
2.05679 0.746252 2.9136
2.13936 0.702792 2.94441
2.11091 0.793706 2.99697
2.17013 0.793316 2.95968
2.15744 0.797912 2.92583
2.14443 0.705052 2.92418
2.12768 0.744334 2.99574
2.27024 0.702427 2.93073
2.27775 0.76822 2.94119
2.24264 0.702726 2.9545
2.22624 0.774684 2.95303
2.26274 0.728182 2.96794
2.25785 0.757596 2.96145
2.34432 0.770328 2.99475
2.3171 0.795168 2.99105
2.37656 0.798754 2.95882
2.35962 0.714713 2.96541
2.31591 0.776431 2.9566
2.3108 0.703593 2.92653
2.45315 0.713581 2.90436
2.47449 0.787454 2.94346
2.42293 0.723773 2.92556
2.46456 0.747013 2.91611
2.46 0.763021 2.90447
2.42401 0.713034 2.93695
2.50185 0.765187 2.93898
2.54611 0.776443 2.98579
2.51805 0.747803 2.97015
2.58441 0.770757 2.95834
2.55507 0.738509 2.97776
2.54021 0.784244 2.93311
2.66962 0.790954 2.9796
2.6765 0.792637 2.90673
2.62649 0.792758 2.99699
2.67142 0.762898 2.93894
2.68075 0.701057 2.91774
2.62427 0.773311 2.93925
2.70899 0.760664 2.9929
2.78037 0.797834 2.97113
2.75252 0.711818 2.99233
2.73695 0.705752 2.96009
2.70179 0.765251 2.98266
2.7289 0.721706 2.91428
2.86151 0.794948 2.9547
2.85918 0.717759 2.95272
2.80264 0.716506 2.92802
2.84206 0.718866 2.98463
2.8129 0.741303 2.95875
2.8772 0.761006 2.99177
2.91357 0.72413 2.97842
2.93845 0.755878 2.92753
2.97751 0.742569 2.9109
2.92688 0.788544 2.90281
2.93968 0.701078 2.94054
2.98293 0.767756 2.99539
3.07877 0.796939 2.97505
3.04174 0.719567 2.93411
3.08831 0.778096 2.99876
3.0334 0.798185 2.98264
3.05561 0.776576 2.91139
3.07256 0.740198 2.91893
0.406651 0.846863 2.9131
0.446993 0.877413 2.94424
0.49689 0.873211 2.97889
0.442317 0.891716 2.90514
0.426265 0.887329 2.9453
0.437118 0.828337 2.92991
0.544116 0.821398 2.916
0.516286 0.808911 2.97716
0.51403 0.889513 2.92489
0.533481 0.840898 2.98797
0.555432 0.879758 2.98626
0.580279 0.833045 2.94896
0.66795 0.873151 2.94693
0.605134 0.884432 2.96044
0.606958 0.878 2.9845
0.608752 0.835705 2.97039
0.604134 0.876611 2.91778
0.665543 0.886571 2.93122
0.713619 0.826285 2.96148
0.735675 0.823661 2.95563
0.741374 0.856462 2.96039
0.768026 0.880253 2.99742
0.791283 0.829651 2.93006
0.726104 0.843559 2.93315
0.885429 0.895787 2.90663
0.841693 0.832901 2.90656
0.802376 0.846983 2.92591
0.804885 0.828264 2.93341
0.868017 0.84297 2.92544
0.860586 0.841586 2.97331
0.960837 0.836987 2.98014
0.936138 0.896169 2.90176
0.975192 0.88493 2.97111
0.95488 0.825255 2.94008
0.987033 0.827936 2.97204
0.917858 0.817989 2.95727
1.06208 0.843173 2.9294
1.05346 0.825807 2.93062
1.04499 0.846587 2.98303
1.07011 0.876441 2.98354
1.06456 0.878334 2.91083
1.05261 0.887852 2.99223
1.11185 0.886186 2.98757
1.14353 0.883887 2.97615
1.14135 0.826507 2.90437
1.17372 0.885474 2.90834
1.17419 0.822212 2.96667
1.16025 0.885824 2.96908
1.28486 0.821209 2.91322
1.23731 0.826903 2.91038
1.28894 0.817675 2.97037
1.22521 0.853055 2.94773
1.27426 0.817041 2.96689
1.20318 0.830967 2.95551
1.32032 0.843859 2.93585
1.36319 0.815204 2.91037
1.39443 0.824803 2.99525
1.33203 0.855915 2.9786
1.36718 0.842318 2.98447
1.36032 0.835529 2.92565
1.41446 0.804001 2.9292
1.43249 0.857423 2.9892
1.49139 0.891739 2.98859
1.47991 0.825432 2.93957
1.42254 0.889678 2.9677
1.47336 0.830085 2.9258
1.516 0.837486 2.93912
1.54826 0.854002 2.9063
1.53871 0.807675 2.99331
1.53861 0.843307 2.90196
1.53082 0.86903 2.97118
1.51651 0.884723 2.95835
1.63912 0.877101 2.9251
1.69196 0.87804 2.94173
1.65225 0.895887 2.95686
1.6021 0.881857 2.90932
1.63445 0.856879 2.96989
1.63865 0.810523 2.94683
1.73372 0.855011 2.985
1.74876 0.813025 2.99277
1.78295 0.879034 2.9029
1.77285 0.87888 2.99253
1.75795 0.86162 2.99538
1.75453 0.872239 2.90617
1.88369 0.854184 2.9669
1.82785 0.816182 2.95179
1.85692 0.808566 2.91198
1.86648 0.819442 2.91026
1.86018 0.887532 2.98429
1.8356 0.884548 2.99029
1.91397 0.84189 2.98294
1.96257 0.889841 2.9868
1.92866 0.86913 2.94266
1.9655 0.820574 2.94841
1.95469 0.81542 2.91965
1.97602 0.859317 2.96343
2.06084 0.866252 2.92348
2.02238 0.808658 2.97149
2.08158 0.819893 2.97898
2.07969 0.808375 2.98258
2.03903 0.82031 2.95973
2.02107 0.807365 2.96175
2.1312 0.834682 2.9237
2.16759 0.836481 2.92848
2.19485 0.802142 2.98652
2.14881 0.847284 2.93815
2.11948 0.881389 2.95757
2.13501 0.880854 2.94067
2.26065 0.869902 2.99647
2.27118 0.896515 2.978
2.24318 0.896613 2.95811
2.22316 0.874009 2.95109
2.26453 0.812853 2.99769
2.26674 0.884051 2.92291
2.38199 0.85786 2.97873
2.32361 0.826338 2.90951
2.37957 0.893067 2.99862
2.3126 0.827863 2.94206
2.37287 0.883061 2.92969
2.31385 0.809124 2.98394
2.45573 0.853658 2.92288
2.46138 0.880999 2.96876
2.40804 0.834428 2.91448
2.46272 0.822636 2.94766
2.47676 0.818188 2.99858
2.42357 0.825504 2.90376
2.58263 0.830321 2.95327
2.5343 0.889305 2.94482
2.52658 0.853643 2.97563
2.59783 0.864265 2.9837
2.59217 0.882901 2.96051
2.59458 0.871804 2.9937
2.64099 0.810344 2.96965
2.62126 0.890204 2.91129
2.62753 0.893077 2.95702
2.62154 0.85804 2.92488
2.69138 0.868202 2.91323
2.61535 0.829995 2.98658
2.74092 0.829205 2.91451
2.7088 0.814824 2.95879
2.77177 0.816083 2.94565
2.74542 0.857992 2.99429
2.79886 0.804829 2.9618
2.73159 0.817691 2.91347
2.87781 0.8403 2.99085
2.89208 0.80857 2.91255
2.83354 0.886129 2.93517
2.83874 0.832193 2.92614
2.86478 0.811701 2.97889
2.83619 0.807397 2.98501
2.97338 0.886265 2.91732
2.94308 0.869699 2.98343
2.92461 0.859065 2.97232
2.94758 0.816395 2.95551
2.99498 0.833111 2.99325
2.92955 0.83042 2.91923
3.04013 0.840084 2.95474
3.03286 0.823082 2.95539
3.04671 0.810975 2.92655
3.03463 0.8482 2.9312
3.06811 0.80515 2.91244
3.04209 0.892553 2.99312
0.484401 0.457089 3.07797
0.468431 0.421976 3.0846
0.470356 0.467329 3.02897
0.473508 0.407219 3.06504
0.406277 0.489893 3.03431
0.471427 0.407114 3.04422
0.566827 0.489055 3.07835
0.529202 0.471227 3.0747
0.595676 0.488917 3.04887
0.520844 0.447934 3.09208
0.556602 0.497573 3.08257
0.594739 0.422299 3.00914
0.607439 0.413028 3.03455
0.634464 0.447512 3.01002
0.678565 0.428759 3.08743
0.607825 0.404209 3.03984
0.662393 0.488587 3.07865
0.628439 0.476456 3.08307
0.777241 0.401745 3.0078
0.71801 0.436802 3.09251
0.76738 0.428335 3.03812
0.735237 0.422786 3.03537
0.728719 0.491054 3.00978
0.718846 0.452954 3.0058
0.826324 0.403538 3.0143
0.821878 0.492481 3.07587
0.804698 0.460886 3.04854
0.884143 0.493617 3.08896
0.822408 0.419742 3.05358
0.86354 0.495673 3.07363
0.903273 0.478478 3.07464
0.994468 0.454731 3.06507
0.908082 0.479824 3.04598
0.904204 0.4178 3.09815
0.904024 0.401576 3.06629
0.971588 0.40735 3.06502
1.02508 0.48478 3.00892
1.02213 0.461909 3.01221
1.04458 0.493312 3.08996
1.08427 0.439058 3.07714
1.06448 0.442172 3.05617
1.07474 0.457334 3.08961
1.16603 0.443923 3.07926
1.13462 0.432253 3.04263
1.1593 0.416626 3.0545
1.11735 0.419538 3.0987
1.16818 0.477043 3.03077
1.18066 0.448153 3.09665
1.25801 0.436608 3.08723
1.25866 0.494982 3.06852
1.26309 0.453986 3.04497
1.25753 0.447084 3.07311
1.21602 0.458339 3.00962
1.20477 0.465453 3.04026
1.37889 0.435678 3.00519
1.31584 0.441536 3.03279
1.37188 0.448168 3.09466
1.36136 0.48564 3.09434
1.31194 0.471761 3.0893
1.35116 0.439493 3.03061
1.49478 0.472709 3.0233
1.43729 0.475007 3.01773
1.40638 0.494016 3.00681
1.49529 0.424906 3.00267
1.47586 0.404399 3.08829
1.49557 0.485764 3.00241
1.56729 0.477477 3.03877
1.50872 0.464035 3.07808
1.53647 0.494028 3.05499
1.53133 0.462759 3.0468
1.55922 0.461369 3.09643
1.52792 0.438863 3.06945
1.62958 0.402539 3.0037
1.61402 0.409861 3.00922
1.69007 0.495482 3.07968
1.6961 0.410789 3.05654
1.61841 0.482756 3.00764
1.61107 0.427929 3.02461
1.79333 0.429755 3.02621
1.74351 0.453594 3.0818
1.79467 0.459072 3.04061
1.7072 0.45902 3.02803
1.76438 0.424734 3.00377
1.76209 0.454691 3.00726
1.83612 0.413291 3.01827
1.84369 0.436006 3.06225
1.8065 0.420487 3.03519
1.89241 0.471567 3.01203
1.83753 0.42987 3.09874
1.8771 0.417995 3.04804
1.90299 0.455835 3.00889
1.97327 0.431624 3.02578
1.91703 0.410017 3.0686
1.99814 0.485326 3.0449
1.90507 0.439618 3.07102
1.91607 0.49814 3.09782
2.04479 0.415753 3.01039
2.09253 0.476163 3.05301
2.06461 0.47486 3.06626
2.0738 0.486739 3.09131
2.05858 0.459106 3.06718
2.09739 0.408239 3.07308
2.17465 0.462558 3.09625
2.15649 0.45837 3.09579
2.11339 0.492373 3.02457
2.1658 0.410937 3.04642
2.1242 0.48174 3.08119
2.18656 0.448677 3.02304
2.29454 0.456192 3.05414
2.27929 0.482152 3.01632
2.237 0.423062 3.04843
2.26195 0.493195 3.0815
2.23762 0.414533 3.03098
2.28185 0.446049 3.09262
2.37188 0.454754 3.02503
2.3241 0.49112 3.04721
2.36388 0.445619 3.05413
2.30779 0.498549 3.06002
2.32732 0.484154 3.07964
2.32174 0.492707 3.04859
2.43394 0.426764 3.03619
2.44648 0.468785 3.06199
2.43755 0.408325 3.0296
2.45647 0.446328 3.01241
2.40969 0.484985 3.07713
2.45797 0.492193 3.01642
2.59478 0.479369 3.01105
2.52809 0.454776 3.08672
2.5457 0.485215 3.09419
2.53863 0.403385 3.05291
2.58365 0.464124 3.07808
2.58979 0.438721 3.07748
2.66642 0.432619 3.02314
2.6446 0.471029 3.03143
2.69445 0.463508 3.02391
2.66518 0.482767 3.07632
2.60779 0.429401 3.0714
2.6798 0.466591 3.07435
2.77696 0.454483 3.07475
2.79195 0.439344 3.08418
2.77919 0.446803 3.08404
2.77163 0.440576 3.03612
2.75204 0.421647 3.01067
2.72606 0.460702 3.06954
2.87621 0.487708 3.02771
2.84859 0.455455 3.06805
2.87861 0.477992 3.00679
