ply
format ascii 1.0
element vertex 1763
property float x
property float y
property float z
end_header
0.813094 0.107478 0.564399
0.835436 0.114749 0.568839
0.836518 0.106557 0.578184
0.820711 0.105693 0.561788
0.826078 0.113821 0.5767
0.838719 0.109443 0.563276
0.83361 0.111614 0.570362
0.858559 0.117645 0.577251
0.850638 0.107584 0.56032
0.842324 0.110561 0.579782
0.845246 0.110474 0.572884
0.853608 0.107631 0.567049
0.855447 0.117789 0.572808
0.861373 0.109654 0.563359
0.862056 0.112476 0.562556
0.862698 0.115184 0.563351
0.862096 0.111493 0.565592
0.872711 0.107897 0.574939
0.875355 0.11652 0.574153
0.890773 0.111169 0.562612
0.88628 0.109192 0.560747
0.884051 0.105127 0.567287
0.89261 0.109012 0.569434
0.884371 0.114155 0.568299
0.889674 0.105161 0.568983
0.0975282 0.12905 0.575899
0.0831016 0.126097 0.570455
0.0953449 0.132164 0.575178
0.0943545 0.133985 0.567357
0.0931564 0.125181 0.570554
0.0853333 0.138289 0.575444
0.104769 0.124365 0.56681
0.117523 0.131713 0.565909
0.107214 0.125774 0.577856
0.116968 0.139291 0.562546
0.100576 0.128973 0.575851
0.112721 0.121449 0.563643
0.120956 0.124683 0.568811
0.13602 0.133875 0.578802
0.130432 0.13102 0.574778
0.136956 0.128918 0.566615
0.123512 0.128152 0.574958
0.138604 0.130704 0.571072
0.153684 0.13146 0.577067
0.144896 0.136429 0.572574
0.145376 0.127382 0.576238
0.140576 0.137184 0.563108
0.141836 0.136618 0.571632
0.157831 0.13099 0.562913
0.16726 0.130701 0.568262
0.167459 0.130203 0.56775
0.162691 0.135939 0.576526
0.16975 0.125914 0.57108
0.173945 0.137437 0.566958
0.162378 0.137703 0.574167
0.183707 0.123125 0.564276
0.184908 0.139768 0.57304
0.194694 0.133218 0.570403
0.192353 0.12593 0.575296
0.187551 0.125139 0.565459
0.196198 0.128759 0.572785
0.2023 0.133947 0.569078
0.200694 0.132446 0.563183
0.203084 0.136071 0.571272
0.216873 0.133147 0.578506
0.216768 0.121856 0.561876
0.204885 0.136347 0.576869
0.236823 0.122339 0.575379
0.22621 0.132186 0.573579
0.238209 0.139161 0.565691
0.239564 0.138847 0.560812
0.227899 0.126935 0.566257
0.239043 0.124452 0.564618
0.24964 0.123684 0.579189
0.240481 0.133171 0.564396
0.255558 0.139683 0.560661
0.254296 0.137766 0.575867
0.24485 0.1291 0.577473
0.243984 0.136253 0.562617
0.273369 0.126518 0.561788
0.263898 0.130998 0.566097
0.267257 0.131101 0.575502
0.261971 0.126022 0.560309
0.260808 0.123193 0.570316
0.273349 0.12143 0.574399
0.288871 0.132271 0.577571
0.285463 0.134234 0.567331
0.28802 0.123367 0.572989
0.299132 0.126332 0.578208
0.2966 0.123488 0.564202
0.292332 0.135249 0.560347
0.302385 0.125606 0.566701
0.312247 0.13823 0.567212
0.318125 0.138765 0.571569
0.311664 0.134962 0.568775
0.316806 0.124433 0.562548
0.305305 0.134616 0.567817
0.332608 0.138242 0.566966
0.327025 0.135615 0.576664
0.333247 0.122124 0.565635
0.327899 0.120664 0.576854
0.321074 0.13451 0.566756
0.338674 0.134438 0.563422
0.354168 0.125041 0.560707
0.345326 0.127476 0.579198
0.355968 0.120366 0.562584
0.347444 0.120437 0.564445
0.342329 0.121752 0.570346
0.353614 0.129011 0.564245
0.360569 0.135649 0.563471
0.373212 0.133908 0.573191
0.36043 0.130503 0.562573
0.364267 0.13153 0.561468
0.364765 0.125839 0.57873
0.369375 0.132189 0.572718
0.381763 0.127862 0.563221
0.390446 0.122176 0.568712
0.384131 0.134353 0.565549
0.391226 0.130852 0.564447
0.392402 0.122255 0.562842
0.39902 0.124665 0.571275
0.414177 0.131083 0.567383
0.417242 0.138205 0.563717
0.412882 0.135766 0.574611
0.413832 0.121043 0.561538
0.410602 0.130542 0.576981
0.401664 0.126632 0.561992
0.424986 0.138916 0.562636
0.422069 0.129487 0.573431
0.437061 0.125115 0.561279
0.423037 0.131017 0.577267
0.422949 0.136724 0.564507
0.427341 0.127439 0.57499
0.453953 0.130234 0.563919
0.443485 0.139207 0.562605
0.450752 0.123083 0.579795
0.442333 0.121054 0.562463
0.446476 0.133804 0.566075
0.457393 0.124448 0.579685
0.460995 0.122898 0.562948
0.476729 0.126215 0.575565
0.478331 0.137449 0.579651
0.466562 0.133002 0.569667
0.472444 0.128223 0.56413
0.46048 0.128823 0.572207
0.49056 0.126188 0.566044
0.482966 0.139085 0.577343
0.482969 0.12394 0.572254
0.491155 0.122091 0.576867
0.481444 0.131878 0.560787
0.499187 0.134744 0.568526
0.510656 0.139075 0.567225
0.518817 0.130322 0.562432
0.51322 0.126718 0.562439
0.518259 0.13703 0.571563
0.501603 0.138821 0.561275
0.51914 0.122691 0.568379
0.533644 0.124599 0.578709
0.526064 0.137462 0.563292
0.53195 0.121352 0.57377
0.521797 0.137326 0.574724
0.53247 0.12615 0.567651
0.530685 0.131604 0.56319
0.556195 0.122434 0.561138
0.546012 0.135297 0.571524
0.550331 0.137017 0.567232
0.555012 0.123674 0.571293
0.556345 0.132662 0.576561
0.553635 0.125104 0.569611
0.562135 0.136404 0.574593
0.575828 0.128853 0.579112
0.568989 0.128874 0.565338
0.567269 0.130663 0.577575
0.561515 0.131845 0.57608
0.566309 0.125838 0.570416
0.58152 0.122519 0.561156
0.585511 0.136903 0.566718
0.598187 0.132189 0.573794
0.592611 0.130363 0.575076
0.587613 0.126373 0.561391
0.595123 0.133155 0.56394
0.61691 0.127388 0.574455
0.615069 0.133868 0.565165
0.607839 0.124957 0.578029
0.607891 0.136069 0.561345
0.617382 0.134832 0.569121
0.606992 0.121442 0.563686
0.621698 0.136837 0.561713
0.626001 0.123705 0.56582
0.621542 0.139383 0.567867
0.634062 0.13384 0.572651
0.627612 0.121127 0.56158
0.625286 0.121761 0.579133
0.649053 0.121638 0.578178
0.654499 0.126544 0.572654
0.647801 0.128718 0.561151
0.642885 0.139154 0.56709
0.645448 0.123244 0.574514
0.659437 0.131771 0.560333
0.673249 0.128611 0.560492
0.66852 0.127334 0.572802
0.674544 0.122306 0.566568
0.664321 0.133266 0.571253
0.676464 0.124244 0.578202
0.669049 0.137294 0.563857
0.680231 0.121585 0.576272
0.692941 0.137275 0.57023
0.689369 0.123292 0.564898
0.68518 0.132235 0.575907
0.686218 0.123855 0.56106
0.68294 0.128595 0.567454
0.701062 0.127288 0.57712
0.716817 0.128378 0.571782
0.713387 0.120987 0.578927
0.710709 0.12937 0.574095
0.705211 0.120619 0.577835
0.700695 0.1394 0.57045
0.729773 0.132756 0.577038
0.737015 0.122597 0.562913
0.72536 0.128639 0.572059
0.725455 0.121277 0.574213
0.732774 0.136395 0.570298
0.721782 0.134796 0.566516
0.751423 0.136744 0.577151
0.742456 0.123603 0.564785
0.744014 0.128393 0.577422
0.749365 0.130865 0.57701
0.754387 0.134959 0.573219
0.747743 0.13408 0.575429
0.76916 0.136688 0.57346
0.761707 0.128496 0.567475
0.771384 0.137674 0.562627
0.769124 0.123921 0.575017
0.765949 0.136447 0.562383
0.767173 0.121465 0.575983
0.790255 0.126543 0.566533
0.788047 0.123913 0.562435
0.790664 0.135174 0.572083
0.786889 0.129621 0.573706
0.784101 0.129507 0.573462
0.798386 0.125212 0.579519
0.801114 0.13355 0.564274
0.801117 0.133 0.569646
0.810256 0.1224 0.578823
0.817474 0.13352 0.561561
0.813346 0.129229 0.574835
0.807735 0.133061 0.575979
0.836596 0.120632 0.577066
0.821821 0.121804 0.576682
0.828225 0.121523 0.573922
0.83218 0.13252 0.564788
0.83481 0.127789 0.561921
0.838847 0.1323 0.56771
0.846898 0.132204 0.562677
0.841581 0.13458 0.573184
0.852188 0.126903 0.578827
0.851944 0.120844 0.563344
0.842294 0.12431 0.57974
0.852289 0.132143 0.563923
0.86525 0.136471 0.571978
0.869157 0.126058 0.572864
0.861933 0.133295 0.570311
0.861619 0.130333 0.564644
0.863739 0.128561 0.561805
0.86228 0.121544 0.574721
0.887375 0.135739 0.566259
0.899159 0.138222 0.578046
0.896974 0.13212 0.568067
0.893787 0.127094 0.560974
0.882838 0.123636 0.566036
0.886142 0.129662 0.575002
0.900277 0.127319 0.564522
0.909479 0.124871 0.571685
0.91291 0.131407 0.572315
0.901777 0.120629 0.569095
0.911823 0.128944 0.565406
0.910683 0.120676 0.562087
0.0909446 0.151521 0.568345
0.0870445 0.14666 0.578106
0.0805711 0.156387 0.573934
0.0960502 0.151405 0.576517
0.0919583 0.142952 0.564333
0.0827262 0.148713 0.579123
0.106379 0.140935 0.57379
0.105236 0.140975 0.562463
0.105919 0.157397 0.570772
0.104273 0.146054 0.577836
0.11568 0.154986 0.578409
0.117403 0.156287 0.566084
0.128611 0.141762 0.560835
0.124127 0.144175 0.567743
0.131813 0.143974 0.57132
0.134576 0.155383 0.574586
0.138061 0.153082 0.561461
0.128513 0.146549 0.571536
0.154305 0.155073 0.563647
0.149109 0.151565 0.568595
0.15533 0.153544 0.566307
0.147096 0.158987 0.564485
0.148558 0.141379 0.57874
0.14334 0.144875 0.563247
0.168198 0.157073 0.565376
0.161363 0.143264 0.576078
0.162011 0.150828 0.564818
0.165455 0.159464 0.564961
0.176804 0.150887 0.56037
0.16273 0.140914 0.56128
0.191949 0.156607 0.570313
0.19548 0.15935 0.564372
0.187174 0.148223 0.56211
0.198048 0.156533 0.570683
0.195785 0.149745 0.574804
0.186375 0.140709 0.565902
0.211266 0.15181 0.574866
0.20735 0.151365 0.578459
0.218576 0.147456 0.562234
0.208922 0.159312 0.576991
0.204749 0.144162 0.572856
0.201078 0.14375 0.56389
0.23713 0.153731 0.571085
0.236171 0.147913 0.574075
0.222563 0.154681 0.57115
0.221484 0.146126 0.567618
0.220506 0.145273 0.566651
0.223812 0.159302 0.571372
0.252134 0.151393 0.57439
0.251577 0.159649 0.566392
0.248462 0.152767 0.563057
0.252346 0.151876 0.565523
0.242394 0.15201 0.563288
0.243934 0.140308 0.565266
0.272129 0.146752 0.562197
0.274708 0.150521 0.571141
0.266623 0.15275 0.561762
0.268521 0.151938 0.565034
0.271523 0.143065 0.574097
0.274439 0.140779 0.575408
0.298567 0.151791 0.568759
0.288732 0.140835 0.576482
0.282358 0.149149 0.563306
0.298654 0.156631 0.573252
0.2869 0.143352 0.571353
0.296382 0.143634 0.578193
0.312962 0.155743 0.563434
0.307135 0.150924 0.571247
0.305228 0.152725 0.563915
0.30329 0.151957 0.563896
0.312735 0.158107 0.568348
0.306345 0.152477 0.564875
0.322768 0.151747 0.579549
0.328841 0.153881 0.56458
0.334469 0.157945 0.579463
0.321655 0.153546 0.569339
0.338149 0.157759 0.57219
0.322511 0.144461 0.568304
0.354847 0.14444 0.567957
0.350441 0.149143 0.576605
0.350645 0.15896 0.567704
0.352397 0.157606 0.57175
0.34828 0.152219 0.561693
0.356749 0.150685 0.571887
0.36107 0.155417 0.573409
0.36661 0.158148 0.57846
0.369206 0.156207 0.573373
0.374941 0.143526 0.572939
0.363789 0.153209 0.566904
0.375009 0.140385 0.569506
0.397787 0.148223 0.563549
0.395041 0.15253 0.562215
0.386403 0.156034 0.577931
0.39425 0.151098 0.575041
0.391015 0.146664 0.562246
0.383673 0.148951 0.56135
0.403303 0.146481 0.572395
0.407125 0.156732 0.576874
0.408949 0.141377 0.570591
0.40168 0.157495 0.571087
0.402171 0.156687 0.572737
0.414661 0.152163 0.569737
0.43172 0.159489 0.574258
0.428685 0.152875 0.573205
0.434577 0.141366 0.577376
0.424855 0.151245 0.568691
0.432128 0.158989 0.562609
0.423777 0.145457 0.56942
0.456198 0.15108 0.572616
0.457837 0.155905 0.564361
0.448074 0.157216 0.571007
0.447869 0.148114 0.567583
0.444645 0.145735 0.567818
0.442408 0.154179 0.563916
0.468628 0.146915 0.562309
0.475118 0.14401 0.575249
0.467139 0.148745 0.57654
0.470446 0.157347 0.562166
0.476639 0.148399 0.564334
0.470703 0.145923 0.562487
0.483912 0.156962 0.565058
0.49449 0.154764 0.573739
0.488158 0.1593 0.577359
0.492115 0.152905 0.561472
0.491637 0.141032 0.570396
0.495887 0.148354 0.56259
0.515381 0.15648 0.571867
0.511295 0.154989 0.566223
0.507586 0.14063 0.566898
0.501406 0.149009 0.567381
0.50926 0.156083 0.572377
0.509309 0.14135 0.569798
0.520252 0.153022 0.569266
0.526392 0.140655 0.570764
0.531439 0.140336 0.579294
0.522377 0.149217 0.571656
0.534362 0.14975 0.561241
0.52499 0.144186 0.578067
0.54796 0.154655 0.560687
0.549364 0.152704 0.571731
0.556495 0.140559 0.563359
0.544455 0.147546 0.574458
0.547757 0.147672 0.574721
0.54641 0.156098 0.562962
0.577476 0.147498 0.562373
0.565442 0.15351 0.574662
0.568212 0.159073 0.571173
0.566589 0.15595 0.577166
0.569584 0.1402 0.565254
0.578908 0.153833 0.576715
0.582901 0.153816 0.574462
0.58372 0.157657 0.573527
0.582041 0.156018 0.566809
0.581525 0.158035 0.560445
0.588275 0.145967 0.576304
0.584765 0.151961 0.572636
0.602145 0.148493 0.568034
0.617014 0.153015 0.564978
0.611666 0.145912 0.574966
0.601609 0.151177 0.563968
0.615245 0.146896 0.564903
0.618754 0.155391 0.561425
0.628883 0.14684 0.571291
0.635023 0.154821 0.574112
0.63056 0.151453 0.560298
0.628258 0.152199 0.567696
0.639623 0.157434 0.572607
0.626351 0.146773 0.567992
0.654829 0.147726 0.565589
0.643748 0.156145 0.575049
0.651998 0.156751 0.562529
0.649176 0.146423 0.576969
0.648678 0.157574 0.561475
0.651333 0.148084 0.564508
0.664466 0.152914 0.568231
0.666563 0.157852 0.562208
0.660383 0.148415 0.563941
0.662645 0.142386 0.57422
0.671981 0.158682 0.576024
0.665572 0.153887 0.573492
0.680782 0.151821 0.568406
0.686803 0.153402 0.571444
0.683188 0.145058 0.578474
0.684838 0.157492 0.579594
0.683011 0.152461 0.572598
0.687577 0.157792 0.577188
0.712597 0.145274 0.571995
0.719413 0.142388 0.563753
0.701025 0.143756 0.568893
0.707159 0.141919 0.571158
0.714292 0.153771 0.575786
0.70632 0.153008 0.5642
0.737176 0.151603 0.564256
0.738015 0.159319 0.576454
0.721053 0.146014 0.577315
0.730334 0.155091 0.576912
0.73896 0.141846 0.57136
0.736727 0.141873 0.579666
0.748281 0.14719 0.561568
0.742856 0.153572 0.574268
0.742932 0.155883 0.570736
0.741221 0.15338 0.567438
0.748292 0.151189 0.564086
0.740451 0.144602 0.572967
0.769244 0.140202 0.562981
0.763844 0.152749 0.576818
0.774096 0.157421 0.566273
0.770502 0.141854 0.571069
0.775438 0.151572 0.568932
0.7713 0.142172 0.56602
0.78429 0.155298 0.564905
0.78136 0.15502 0.579481
0.789571 0.151185 0.563049
0.788636 0.14711 0.566285
0.797588 0.140814 0.576778
0.786586 0.157638 0.578688
0.816165 0.142267 0.561956
0.812169 0.147965 0.56132
0.80085 0.155842 0.560202
0.811424 0.141976 0.579103
0.819394 0.143511 0.577654
0.804185 0.153808 0.564849
0.839788 0.148325 0.566851
0.836563 0.153158 0.577249
0.820954 0.152414 0.568491
0.827048 0.152649 0.573053
0.830518 0.149205 0.563424
0.833852 0.146952 0.575623
0.841942 0.149038 0.568096
0.859717 0.140933 0.578472
0.857964 0.156262 0.561132
0.844259 0.150577 0.564811
0.851742 0.145248 0.579025
0.854337 0.140887 0.562187
0.87151 0.156793 0.563819
0.865148 0.157051 0.560261
0.866512 0.147443 0.561075
0.874863 0.156475 0.563462
0.86377 0.141064 0.579022
0.86385 0.157161 0.566798
0.88341 0.143242 0.574592
0.885601 0.14104 0.576431
0.892799 0.150995 0.574546
0.888779 0.145843 0.575851
0.880805 0.14481 0.561122
0.888934 0.144996 0.571072
0.917626 0.148188 0.566334
0.917182 0.151395 0.578966
0.910591 0.150482 0.560485
0.906266 0.147105 0.577054
0.918499 0.14253 0.577583
0.906337 0.150722 0.577434
0.231581 0.0319637 0.58436
0.227959 0.031596 0.586815
0.228841 0.020962 0.599365
0.225095 0.0306958 0.595914
0.226567 0.0313717 0.598139
0.237598 0.0376333 0.594824
0.241579 0.0324034 0.5935
0.249172 0.0327943 0.581049
0.241475 0.0267304 0.59198
0.252169 0.0259113 0.589632
0.244777 0.0369107 0.591682
0.250543 0.0279595 0.595121
0.269253 0.0280212 0.587668
0.266595 0.0322429 0.59293
0.271656 0.022405 0.582579
0.268563 0.0267745 0.581709
0.269247 0.036593 0.582209
0.26185 0.0283345 0.591738
0.282765 0.0386865 0.596745
0.284498 0.0395562 0.598263
0.298063 0.0316602 0.597673
0.28818 0.0319366 0.590534
0.28574 0.0257859 0.581158
0.282853 0.0281129 0.590944
0.308498 0.0281061 0.599329
0.316111 0.0392024 0.599794
0.302644 0.0219085 0.594255
0.306851 0.0234632 0.596585
0.307634 0.0244049 0.590947
0.31649 0.0262974 0.587287
0.327904 0.0330688 0.594733
0.339676 0.0358975 0.584406
0.33123 0.0229855 0.598737
0.326311 0.0323042 0.59735
0.322416 0.0240377 0.589409
0.330284 0.0213354 0.584943
0.356776 0.0322821 0.585674
0.347286 0.0352232 0.591822
0.345858 0.0282229 0.592658
0.345031 0.0204289 0.584265
0.345346 0.0381771 0.594456
0.344253 0.0281946 0.585907
0.364644 0.0393532 0.584954
0.374086 0.0271109 0.584962
0.379795 0.0260907 0.586833
0.375617 0.0317458 0.584761
0.372391 0.0313954 0.580944
0.374295 0.0351899 0.582295
0.38606 0.0262463 0.599607
0.392805 0.0356252 0.593704
0.382274 0.0362289 0.599518
0.391941 0.0305595 0.592573
0.386218 0.0360878 0.591736
0.393059 0.0294015 0.599539
0.414592 0.0231223 0.592594
0.412938 0.0269083 0.585844
0.408114 0.0312907 0.592802
0.408551 0.0366273 0.581777
0.418304 0.0350206 0.591819
0.404826 0.0272087 0.590957
0.420261 0.0358554 0.593304
0.437274 0.0339647 0.580666
0.4367 0.0265131 0.599286
0.424541 0.031357 0.594185
0.433196 0.0232877 0.592543
0.437284 0.0225326 0.590906
0.454703 0.0297076 0.583613
0.452639 0.0385544 0.595959
0.45274 0.0246119 0.596884
0.440982 0.0348763 0.593578
0.444775 0.0292453 0.594546
0.447302 0.0321828 0.58447
0.477487 0.0269417 0.585376
0.465003 0.0227406 0.587729
0.464458 0.0397226 0.591781
0.471041 0.0250096 0.596214
0.47491 0.0213935 0.597491
0.472917 0.033023 0.582144
0.493824 0.0282163 0.584035
0.487292 0.026784 0.586391
0.499225 0.0325601 0.585471
0.495271 0.0391356 0.592642
0.498977 0.0333005 0.586004
0.484616 0.0252397 0.594495
0.501868 0.027044 0.58691
0.503023 0.0288003 0.584536
0.501047 0.0206296 0.587062
0.513527 0.0347947 0.593109
0.512323 0.0273944 0.589186
0.507068 0.0314061 0.584108
0.526004 0.0359537 0.594118
0.527375 0.0256275 0.595695
0.53739 0.0383145 0.592608
0.537526 0.0383991 0.596272
0.534135 0.0265074 0.591561
0.533616 0.0295727 0.593484
0.559117 0.0378055 0.587266
0.548869 0.0311847 0.583032
0.556099 0.0306061 0.595657
0.551649 0.0355947 0.588509
0.542808 0.0397942 0.586787
0.547591 0.034234 0.589694
0.569138 0.0278922 0.593886
0.574018 0.0351626 0.592241
0.576361 0.0372726 0.594375
0.571338 0.0365786 0.581004
0.579004 0.0289337 0.595615
0.566142 0.0247184 0.582907
0.598009 0.0356201 0.590739
0.597931 0.0247072 0.580351
0.583113 0.0366362 0.588534
0.599218 0.0319842 0.582565
0.586792 0.0364011 0.588093
0.592553 0.0394597 0.582707
0.613093 0.0220018 0.597388
0.602577 0.0310071 0.587019
0.603452 0.0221583 0.590343
0.605575 0.0226818 0.591624
0.616905 0.0327812 0.591195
0.601979 0.0380367 0.586051
0.633192 0.0293662 0.583902
0.623194 0.0333331 0.598434
0.634871 0.0268749 0.585232
0.622642 0.0386236 0.583121
0.632585 0.0277099 0.590635
0.62904 0.0359201 0.59436
0.648909 0.0242121 0.599747
0.648714 0.0339046 0.594165
0.648785 0.0397758 0.591675
0.65283 0.0242743 0.586653
0.654754 0.0281856 0.581019
0.654942 0.037784 0.593287
0.661657 0.026337 0.598986
0.676758 0.0208528 0.581524
0.677453 0.0207876 0.584916
0.673425 0.0252415 0.586531
0.667506 0.0346926 0.590449
0.673603 0.024747 0.592505
0.691714 0.0342164 0.59338
0.687937 0.033206 0.592052
0.68162 0.0310939 0.596063
0.689559 0.0241741 0.58387
0.692068 0.0349914 0.597305
0.684833 0.0304121 0.583719
0.701255 0.0345993 0.581946
0.703317 0.0217814 0.594034
0.700623 0.0293612 0.594884
0.704338 0.0340555 0.583008
0.707757 0.0368613 0.580686
0.716736 0.0315941 0.582278
0.734839 0.0220469 0.589311
0.739312 0.0364792 0.582109
0.734174 0.0380093 0.598397
0.723652 0.0329784 0.590639
0.723621 0.0217851 0.588371
0.737963 0.0248013 0.597008
0.746247 0.0362407 0.589247
0.743288 0.0348827 0.583269
0.757809 0.0359038 0.589124
0.745055 0.0358223 0.587605
0.759242 0.0304202 0.598548
0.750336 0.0353951 0.598411
0.774721 0.0357303 0.596437
0.762669 0.0374094 0.598546
0.778907 0.0240883 0.592734
0.768503 0.0231739 0.583786
0.777165 0.0264437 0.595776
0.772704 0.0204203 0.590205
0.180961 0.0492312 0.587113
0.191966 0.0523842 0.584961
0.183625 0.0466362 0.588839
0.186989 0.0496991 0.585509
0.181621 0.049634 0.593062
0.186718 0.0404736 0.5873
0.205271 0.0537254 0.599282
0.201755 0.0556898 0.594742
0.216155 0.040535 0.592408
0.21863 0.0537458 0.584117
0.216958 0.0474195 0.594366
0.206512 0.0565355 0.589528
0.236983 0.0538172 0.593966
0.236838 0.0546532 0.590458
0.238876 0.0552755 0.581521
0.232788 0.053938 0.584858
0.222187 0.0466455 0.587986
0.233608 0.0492969 0.598985
0.246763 0.0457619 0.586774
0.258042 0.0572254 0.58254
0.249297 0.0474259 0.596936
0.258132 0.0478835 0.59696
0.247096 0.0457957 0.599746
0.24736 0.0535244 0.598918
0.264979 0.0452645 0.584369
0.265728 0.0565735 0.591552
0.279521 0.0458152 0.58057
0.261373 0.0468283 0.595215
0.267586 0.0490991 0.596056
0.265444 0.0522513 0.581173
0.29574 0.0403509 0.588476
0.294416 0.0595993 0.581799
0.289024 0.0497093 0.583891
0.284779 0.0510171 0.582678
0.297154 0.0448159 0.598618
0.285706 0.0427931 0.585736
0.313035 0.0553163 0.590746
0.306064 0.0574717 0.595534
0.302641 0.0493226 0.588048
0.305734 0.0524451 0.587581
0.319274 0.0446134 0.588369
0.302002 0.0430098 0.583404
0.330299 0.0564807 0.592333
0.320686 0.0572241 0.584037
0.337358 0.0482311 0.586877
0.329531 0.0511489 0.591316
0.334113 0.055287 0.599023
0.322674 0.0567748 0.590991
0.356862 0.0437805 0.595747
0.356007 0.0482377 0.59442
0.346073 0.0488011 0.591683
0.358798 0.0532297 0.581496
0.357379 0.0561175 0.586272
0.353596 0.0431905 0.584423
0.375187 0.0447139 0.594694
0.36349 0.055894 0.584895
0.374734 0.0536517 0.588262
0.375646 0.0504295 0.584407
0.361754 0.0405036 0.583159
0.371487 0.0546842 0.59423
0.381017 0.0548152 0.583714
0.388582 0.0487502 0.595404
0.399622 0.0565734 0.596719
0.381761 0.0445867 0.588215
0.397998 0.0592094 0.580963
0.38395 0.058609 0.587284
0.406256 0.0444538 0.589433
0.404921 0.0477167 0.581132
0.40457 0.0426699 0.595614
0.404016 0.0429578 0.581561
0.406612 0.0432044 0.598042
0.400747 0.0587862 0.582465
0.425135 0.0404798 0.592475
0.427012 0.0446914 0.591615
0.439353 0.0505741 0.585999
0.427954 0.0491912 0.593913
0.429456 0.0568172 0.584969
0.425455 0.0417961 0.59954
0.44853 0.0517021 0.587715
0.448041 0.0451074 0.59909
0.447617 0.0447413 0.588742
0.449014 0.0474242 0.596349
0.447764 0.0546971 0.598022
0.447545 0.0532418 0.584101
0.471202 0.0507655 0.585918
0.464325 0.0456728 0.593774
0.469044 0.0577425 0.58413
0.479492 0.0471468 0.586939
0.470859 0.0486389 0.598194
0.46283 0.0582933 0.584781
0.494726 0.042162 0.58506
0.497847 0.0450218 0.59806
0.49272 0.0572749 0.592468
0.492669 0.0568302 0.594452
0.495656 0.0512239 0.59492
0.48583 0.0517268 0.581552
0.507634 0.0458647 0.585613
0.517679 0.0475589 0.59946
0.51763 0.0576366 0.587008
0.518955 0.0456707 0.580227
0.515487 0.0581337 0.588898
0.513857 0.0429407 0.589198
0.535756 0.0575826 0.581552
0.532125 0.0486814 0.597832
0.520574 0.0502128 0.583185
0.525608 0.0576302 0.596921
0.537874 0.0576542 0.584509
0.527026 0.0571479 0.584016
0.558434 0.0406365 0.580877
0.545249 0.0550383 0.595502
0.546684 0.0430701 0.581079
0.547775 0.0405136 0.581702
0.558455 0.059038 0.584475
0.545385 0.0460965 0.582882
0.575523 0.0555527 0.592796
0.566156 0.0563981 0.585985
0.568458 0.054122 0.581574
0.566733 0.0545796 0.588873
0.56537 0.0466392 0.58933
0.571973 0.0543145 0.596006
0.587875 0.0559738 0.595318
0.585559 0.0517698 0.588497
0.594367 0.043135 0.594701
0.594407 0.0424423 0.593664
0.583145 0.0461526 0.595233
0.59654 0.0464255 0.598078
0.618127 0.0469464 0.584519
0.602219 0.0458663 0.580808
0.605472 0.0539763 0.586564
0.618254 0.0535274 0.593186
0.619076 0.05717 0.584942
0.605381 0.055875 0.592573
0.620319 0.0579615 0.589258
0.633365 0.0445348 0.596145
0.621275 0.0509 0.595751
0.620773 0.0572822 0.594633
0.636694 0.0473671 0.586234
0.630999 0.0404617 0.58289
0.654319 0.0480801 0.584084
0.654166 0.0452479 0.596345
0.656466 0.0428009 0.591422
0.643445 0.0513131 0.590651
0.65245 0.0427133 0.593024
0.659118 0.0564929 0.592451
0.669589 0.0572617 0.592423
0.662765 0.0553366 0.585862
0.669208 0.0404912 0.589101
0.662064 0.0539598 0.594092
0.674829 0.0503504 0.598513
0.67759 0.0579766 0.581138
0.693785 0.0556285 0.592789
0.689079 0.0448075 0.590225
0.699688 0.0504672 0.592602
0.699714 0.0427303 0.580319
0.688708 0.042782 0.599708
0.683859 0.0545409 0.594635
0.716985 0.0512472 0.58117
0.716989 0.0443626 0.595729
0.718446 0.0409379 0.592282
0.709347 0.045278 0.593255
0.719567 0.0510297 0.598242
0.713192 0.0441872 0.587372
0.733527 0.040681 0.582208
0.738435 0.0407272 0.595875
0.721586 0.0430279 0.581805
0.731059 0.0578051 0.584895
0.722587 0.0596285 0.586003
0.722073 0.0593684 0.582795
0.740517 0.0513619 0.588137
0.742921 0.058621 0.598639
0.743666 0.0585713 0.584848
0.742733 0.0557429 0.581694
0.744924 0.0579546 0.585859
0.74433 0.054191 0.594279
0.772879 0.0439465 0.596918
0.761255 0.0493807 0.58559
0.769306 0.0518689 0.59567
0.763636 0.0439853 0.585886
0.775474 0.0469251 0.581363
0.776502 0.0553971 0.596091
0.788767 0.0564158 0.597899
0.799765 0.0516629 0.593086
0.793968 0.053356 0.594979
0.79954 0.0536519 0.580795
0.795227 0.0447253 0.58553
0.786632 0.0536563 0.583216
0.817915 0.0590112 0.587649
0.806948 0.0506184 0.595178
0.815824 0.0490382 0.598312
0.802811 0.0590231 0.589139
0.802989 0.0503303 0.593122
0.811122 0.0540803 0.596339
0.14125 0.0684727 0.583106
0.146573 0.0695193 0.582323
0.157533 0.0717452 0.585265
0.150807 0.0788925 0.583913
0.155954 0.0631939 0.592264
0.15122 0.0743924 0.585038
0.178454 0.0757421 0.595816
0.169539 0.0711655 0.587572
0.171448 0.0663598 0.59624
0.163198 0.0671782 0.596748
0.17153 0.0670282 0.587069
0.177209 0.0641491 0.585701
0.188581 0.0743002 0.594338
0.186308 0.069688 0.591149
0.197791 0.0620887 0.594519
0.193894 0.0694544 0.580259
0.187957 0.0733898 0.589444
0.197221 0.0649652 0.594247
0.206812 0.0706107 0.596206
0.207261 0.0766154 0.587412
0.200492 0.0682962 0.58034
0.203439 0.0779111 0.583325
0.201383 0.0738074 0.59847
0.207894 0.0635812 0.587484
0.220569 0.0650107 0.580871
0.22115 0.0741557 0.5972
0.224793 0.0787463 0.591469
0.229233 0.0683119 0.593076
0.222901 0.0770937 0.589243
0.238884 0.0637982 0.583613
0.255667 0.0791089 0.582343
0.251368 0.0655281 0.594523
0.251969 0.077077 0.584468
0.255938 0.0764373 0.592294
0.252523 0.068266 0.594019
0.246703 0.075079 0.593842
0.273668 0.0636168 0.590788
0.266181 0.0646449 0.595384
0.264388 0.0739179 0.59436
0.262022 0.0773175 0.590355
0.271874 0.068876 0.594572
0.262262 0.0781206 0.585661
0.297198 0.0638394 0.58438
0.294127 0.0697866 0.594656
0.283855 0.0774401 0.593321
0.291464 0.0649285 0.584174
0.294529 0.0626441 0.595891
0.296367 0.0778738 0.597565
0.308961 0.0633102 0.584289
0.309213 0.0731841 0.596252
0.301909 0.0678397 0.581785
0.31845 0.0715518 0.582858
0.307329 0.0664773 0.585548
0.304161 0.063138 0.584517
0.327235 0.0628453 0.595936
0.327873 0.0733332 0.588892
0.329129 0.0665316 0.598344
0.324091 0.0666725 0.599722
0.322363 0.0791532 0.599518
0.331229 0.0635275 0.598409
0.350285 0.0777081 0.595164
0.358105 0.0634563 0.584968
0.348623 0.0727907 0.597635
0.340721 0.0680031 0.580969
0.348994 0.0626273 0.581459
0.346097 0.0730954 0.594296
0.362899 0.0726594 0.585002
0.377246 0.0679875 0.599427
0.369282 0.060944 0.586304
0.360366 0.0750302 0.594083
0.364631 0.0683583 0.58465
0.363047 0.0676553 0.582619
0.388115 0.0708665 0.580365
0.384051 0.0660232 0.589073
0.388298 0.0713806 0.588827
0.387169 0.0669923 0.584323
0.387854 0.0791141 0.594246
0.381421 0.0672318 0.599705
0.409606 0.070868 0.58161
0.41794 0.0743219 0.59863
0.418431 0.0689432 0.593463
0.411061 0.0703627 0.585459
0.408568 0.0632639 0.587883
0.404568 0.0751414 0.596633
0.429756 0.0712429 0.582799
0.432028 0.0666268 0.593311
0.436496 0.06239 0.586835
0.427752 0.0728729 0.580562
0.439395 0.0718618 0.591461
0.422978 0.0708797 0.58411
0.442799 0.0604873 0.598878
0.455413 0.0620537 0.59087
0.458574 0.079747 0.581384
0.441987 0.0625864 0.595664
0.452886 0.0618787 0.590629
0.446297 0.0733774 0.592233
0.464926 0.0735283 0.590623
0.461874 0.0690323 0.599015
0.461927 0.0684459 0.591186
0.465725 0.0708685 0.58931
0.464841 0.0621353 0.585679
0.468912 0.0694048 0.58158
0.497212 0.0611768 0.593979
0.49062 0.0784761 0.588774
0.499342 0.0756471 0.581442
0.482016 0.0669036 0.584144
0.488939 0.0773134 0.590884
0.482766 0.0747157 0.585549
0.500519 0.0721393 0.589455
0.518105 0.0644202 0.593475
0.519039 0.0746334 0.591543
0.510352 0.0728228 0.58456
0.507158 0.0683664 0.587451
0.511657 0.0610261 0.592273
0.525485 0.0685154 0.599627
0.527345 0.0709908 0.588988
0.526051 0.0760943 0.589459
0.530527 0.0644573 0.583261
0.533423 0.0716822 0.587404
0.535635 0.072062 0.588663
0.541104 0.0794372 0.585883
0.541922 0.0705087 0.585695
0.548275 0.0623752 0.588972
0.54971 0.078004 0.588051
0.555869 0.0676846 0.588784
0.546519 0.0714667 0.599301
0.572957 0.0661063 0.597011
0.560329 0.0792315 0.586395
0.569313 0.0653573 0.589249
0.560524 0.0606811 0.591374
0.563493 0.065507 0.596737
0.57156 0.0608419 0.591495
0.580316 0.0675385 0.591865
0.596115 0.0645933 0.597779
0.583989 0.0611083 0.581145
0.593291 0.0668094 0.598697
0.596387 0.0773799 0.597447
0.591177 0.0737879 0.595417
0.615765 0.0696969 0.598648
0.604782 0.0619232 0.583659
0.604167 0.0650988 0.595696
0.60809 0.0668376 0.587058
0.609407 0.0723762 0.588056
0.609761 0.0735377 0.589054
0.625102 0.06067 0.595257
0.627267 0.0659525 0.593451
0.624349 0.0621468 0.582445
0.623285 0.0728085 0.586466
0.631694 0.075118 0.58411
0.636934 0.0787069 0.590663
0.641466 0.0747218 0.592728
0.65265 0.0723674 0.59118
0.651067 0.0753746 0.594285
0.653273 0.0677134 0.583655
0.650281 0.0670571 0.5881
0.658491 0.0654368 0.590954
0.666437 0.0711356 0.588001
0.665331 0.0763494 0.587225
0.668579 0.0734828 0.591429
0.664204 0.0716245 0.596882
0.661064 0.0629323 0.585924
0.662978 0.0655357 0.586937
0.683118 0.0626578 0.593602
0.697575 0.0702385 0.585743
0.692411 0.0768855 0.593903
0.692306 0.0695622 0.580887
0.68197 0.0623752 0.590289
0.691965 0.0642418 0.599713
0.701425 0.0750476 0.587059
0.712206 0.0607521 0.587503
0.712573 0.0726524 0.588831
0.705056 0.0670458 0.58093
0.709097 0.0758371 0.581141
0.702681 0.0667785 0.588052
0.725116 0.0634385 0.586455
0.724984 0.065557 0.596418
0.735211 0.0764856 0.599411
0.731572 0.0759731 0.588076
0.733019 0.0673861 0.581908
0.729213 0.066343 0.599542
0.750719 0.0792374 0.583768
0.747795 0.0723967 0.599712
0.742794 0.0659676 0.586174
0.758289 0.0712794 0.5802
0.740239 0.0666587 0.588267
0.75346 0.0757443 0.586704
0.760824 0.0676835 0.592118
0.765277 0.0619156 0.596124
0.770822 0.0611898 0.581863
0.764174 0.0758002 0.594229
0.769465 0.062221 0.595205
0.761042 0.0777254 0.596635
0.798539 0.0720889 0.586058
0.792051 0.0628579 0.59978
0.796479 0.0763715 0.597881
0.784729 0.0760828 0.597717
0.795076 0.0750674 0.598367
0.781682 0.066281 0.588528
0.803511 0.0786509 0.589492
0.803562 0.0692799 0.594686
0.801231 0.060514 0.593424
0.81576 0.069633 0.580627
0.810608 0.0631371 0.599728
0.81543 0.0784359 0.587191
0.820378 0.0616415 0.594295
0.838886 0.0681923 0.598731
0.822968 0.0623463 0.598377
0.822256 0.065822 0.585603
0.829292 0.0736753 0.58723
0.825154 0.0645291 0.58023
0.844086 0.0694453 0.590878
0.854548 0.0735325 0.591006
0.851846 0.0727395 0.588677
0.849152 0.0705928 0.587775
0.847689 0.0733144 0.599665
0.847692 0.077096 0.595316
0.13882 0.080732 0.58588
0.121833 0.0820619 0.583718
0.12494 0.087039 0.588626
0.138208 0.0809244 0.589294
0.135766 0.0929703 0.583715
0.128051 0.0916788 0.598881
0.150454 0.0980666 0.588667
0.148881 0.0859866 0.598622
0.151161 0.0865077 0.586427
0.15405 0.0882135 0.594672
0.142759 0.0881309 0.595855
0.143096 0.0938964 0.595976
0.174584 0.0929073 0.587134
0.160906 0.0968275 0.595651
0.163023 0.0802024 0.584008
0.160915 0.0880742 0.583346
0.178883 0.0915525 0.59131
0.175199 0.0982011 0.594686
0.194849 0.0917193 0.583181
0.197293 0.0923786 0.594125
0.1825 0.0841867 0.599752
0.182643 0.0803935 0.598509
0.193112 0.0838987 0.595056
0.191078 0.0914296 0.581031
0.209637 0.0942796 0.596312
0.202854 0.099141 0.596907
0.202397 0.0839618 0.583246
0.201143 0.0995211 0.590343
0.215871 0.0991271 0.580526
0.204884 0.0961583 0.59124
0.228043 0.0946773 0.592329
0.221404 0.0984657 0.599179
0.224486 0.0875661 0.581696
0.231483 0.0915329 0.584147
0.238363 0.0934626 0.582302
0.221503 0.091862 0.581034
0.257297 0.0906543 0.592137
0.242947 0.0876925 0.597211
0.252962 0.0871726 0.587868
0.243403 0.095633 0.594378
0.25671 0.0920782 0.588133
0.24946 0.0994117 0.587643
0.272257 0.0838909 0.583167
0.273978 0.0970799 0.581714
0.264589 0.0954904 0.586042
0.278183 0.0836239 0.580404
0.273065 0.096501 0.590464
0.273334 0.0979782 0.582426
0.280744 0.0936709 0.598437
0.293647 0.0969746 0.593701
0.287651 0.0845686 0.596659
0.287362 0.0959271 0.591915
0.296039 0.0915943 0.581442
0.291506 0.0988931 0.587499
0.303027 0.0919891 0.588885
0.305962 0.0845293 0.587427
0.315747 0.0806144 0.595627
0.313367 0.0997416 0.591033
0.306867 0.0843325 0.599166
0.312772 0.0933674 0.592489
0.323119 0.0952936 0.592915
0.33845 0.0958496 0.588918
0.338713 0.0852529 0.588598
0.335176 0.0980504 0.583368
0.337359 0.0947104 0.588454
0.330591 0.0910569 0.592483
0.359311 0.0983977 0.584894
0.355389 0.087772 0.595934
0.354714 0.0956604 0.594603
0.340668 0.0967484 0.58678
0.357143 0.0933883 0.583413
0.345216 0.0851259 0.594478
0.374759 0.0866662 0.595646
0.37426 0.0815069 0.586254
0.369634 0.093008 0.58525
0.369165 0.0916612 0.594642
0.360782 0.0935519 0.591714
0.365921 0.0806754 0.583886
0.399522 0.0958058 0.58378
0.382355 0.0846879 0.599261
0.387076 0.0974645 0.595277
0.397128 0.0981442 0.595624
0.399571 0.0921881 0.583986
0.397142 0.0813703 0.597308
0.410727 0.0866601 0.597822
0.412764 0.080622 0.591037
0.411903 0.0919187 0.587715
0.403409 0.0856118 0.592938
0.412402 0.0930193 0.584347
0.407351 0.0892435 0.597654
0.435081 0.0952197 0.594609
0.427818 0.0928762 0.591771
0.43922 0.0996954 0.597602
0.421983 0.0910942 0.584227
0.42669 0.0851865 0.589668
0.424635 0.0806066 0.597498
0.445171 0.0857643 0.592312
0.444146 0.0878841 0.580999
0.451591 0.099212 0.582287
0.4441 0.0993124 0.599357
0.456845 0.0918132 0.580456
0.447269 0.0851669 0.583193
0.472031 0.0968504 0.582735
0.462051 0.0868308 0.5892
0.47071 0.0933849 0.596015
0.471574 0.093338 0.591666
0.463098 0.0852843 0.590735
0.46625 0.0842493 0.596347
0.485177 0.0926485 0.590818
0.488203 0.0810764 0.587463
0.488999 0.0980323 0.581539
0.494716 0.0919478 0.584961
0.487741 0.0939325 0.592043
0.496101 0.0916486 0.592497
0.51859 0.0978044 0.586103
0.505678 0.0887307 0.594286
0.515917 0.0812344 0.591763
0.51444 0.0886209 0.585934
0.518758 0.0934068 0.582852
0.506926 0.087712 0.589727
0.525531 0.0841711 0.596641
0.530614 0.0990135 0.586007
0.533943 0.0994136 0.581109
0.538676 0.0822958 0.59358
0.535679 0.0877523 0.584851
0.529587 0.0930638 0.584512
0.546045 0.0861913 0.589557
0.544968 0.0894434 0.596042
0.558346 0.0806326 0.588837
0.552817 0.0959776 0.59493
0.556811 0.0833847 0.581233
0.547923 0.0911391 0.582659
0.564964 0.0979446 0.587478
0.564436 0.0895169 0.584842
0.564875 0.0893357 0.597712
0.570572 0.085599 0.580648
0.578969 0.0934859 0.594507
0.575668 0.08822 0.585843
0.592788 0.0911413 0.597848
0.589523 0.0864542 0.582249
0.582587 0.0889592 0.583782
0.596366 0.0811752 0.594479
0.590376 0.0947127 0.598128
0.591899 0.0847403 0.596389
0.600223 0.0965746 0.583051
0.619021 0.0986578 0.598063
0.619166 0.0888883 0.583652
0.601995 0.0859013 0.580918
0.610456 0.0975002 0.597335
0.606613 0.086448 0.597914
0.629455 0.0976736 0.582973
0.631168 0.0862915 0.58813
0.626037 0.0993567 0.598087
0.633191 0.0808421 0.588678
0.630445 0.087239 0.588454
0.639281 0.0860554 0.582107
0.657575 0.0829954 0.594227
0.655978 0.0847467 0.598909
0.657959 0.0990157 0.598332
0.65337 0.0924402 0.58597
0.658755 0.0913815 0.580303
0.653274 0.0878952 0.590437
0.677857 0.0817517 0.592924
0.671535 0.0977037 0.594731
0.66413 0.0832926 0.592914
0.664971 0.0903536 0.59217
0.671047 0.0830179 0.59638
0.671824 0.0987153 0.583406
0.694185 0.0921718 0.592672
0.694535 0.0870487 0.597596
0.683657 0.0974068 0.599698
0.694976 0.0925411 0.594516
0.688651 0.0873354 0.580878
0.687287 0.0865285 0.589134
0.710376 0.0975124 0.592347
0.718397 0.0919494 0.593595
0.707839 0.0970627 0.585407
0.703601 0.0923839 0.591134
0.707508 0.0910987 0.580521
0.716763 0.0994328 0.582434
0.728037 0.0828045 0.597485
0.730629 0.0939767 0.584778
0.721888 0.0982686 0.591277
0.738421 0.0824197 0.580444
0.735521 0.0826544 0.592508
0.726563 0.0810485 0.587536
0.753517 0.0805431 0.585725
0.747249 0.0921291 0.596932
0.759776 0.0807648 0.586513
0.743315 0.0965149 0.583354
0.753917 0.091209 0.582488
0.752543 0.0986793 0.595026
0.778325 0.0878916 0.591517
0.762869 0.0824986 0.582526
0.765849 0.091686 0.588276
0.768468 0.0988513 0.596586
0.765273 0.0995977 0.590442
0.773689 0.0875667 0.588601
0.785716 0.0890251 0.585004
0.78631 0.0836392 0.581728
0.788782 0.0829235 0.589223
0.799764 0.0933688 0.592872
0.796104 0.084294 0.589127
0.783293 0.0968256 0.598769
0.819061 0.0991516 0.591051
0.80115 0.092595 0.5813
0.819011 0.0811729 0.584439
0.809104 0.0861945 0.594061
0.801108 0.0859995 0.597789
0.817524 0.0830535 0.583096
0.823517 0.0814149 0.595422
0.835791 0.0889909 0.581041
0.833109 0.0980205 0.586257
0.823208 0.0843097 0.593681
0.837369 0.0963172 0.591446
0.821326 0.0970306 0.587002
0.855782 0.0944695 0.584964
0.842117 0.0833791 0.598097
0.858093 0.0907442 0.598048
0.842723 0.0819343 0.5888
0.850265 0.0818628 0.593382
0.843939 0.0857258 0.593367
0.874199 0.0979448 0.584796
0.872915 0.096887 0.587884
0.866551 0.081602 0.591058
0.864893 0.0863819 0.598999
0.877688 0.0837649 0.584899
0.868917 0.0915069 0.589736
0.110988 0.11061 0.595633
0.115243 0.104245 0.587357
0.100702 0.109613 0.588381
0.116241 0.109112 0.594451
0.117437 0.11331 0.597071
0.102144 0.118154 0.58728
0.139255 0.112649 0.583704
0.136317 0.105122 0.590475
0.135359 0.11606 0.592501
0.137215 0.114538 0.598862
0.133865 0.118925 0.597214
0.124565 0.107126 0.597664
0.159722 0.110561 0.583046
0.151504 0.105118 0.585667
0.146333 0.10564 0.592056
0.154073 0.116651 0.594035
0.145812 0.106751 0.582934
0.144031 0.107231 0.599433
0.176493 0.108523 0.581884
0.176768 0.115559 0.58303
0.177707 0.100905 0.585827
0.160976 0.111683 0.592412
0.17404 0.116732 0.581458
0.178427 0.115635 0.585471
0.197902 0.105469 0.589059
0.198959 0.118553 0.593525
0.18538 0.116302 0.586843
0.186568 0.104513 0.580832
0.181087 0.117546 0.590908
0.195431 0.116457 0.580545
0.206504 0.106431 0.588307
0.201926 0.108933 0.599128
0.201342 0.110891 0.584672
0.204062 0.114901 0.596795
0.218951 0.109221 0.583132
0.212856 0.114923 0.591453
0.238032 0.104865 0.593354
0.238564 0.108905 0.586585
0.233025 0.108428 0.597368
0.228106 0.101329 0.590466
0.228115 0.10155 0.589096
0.22972 0.101339 0.586043
0.24299 0.117105 0.593519
0.257297 0.115777 0.595226
0.241723 0.100946 0.594137
0.247752 0.101728 0.595233
0.245107 0.103138 0.597945
0.256373 0.106101 0.585053
0.261849 0.111735 0.598561
0.260352 0.103553 0.581465
0.269213 0.109117 0.592128
0.26914 0.111771 0.585393
0.267736 0.10053 0.588358
0.26694 0.11814 0.593864
0.293439 0.113762 0.591317
0.283864 0.115892 0.591833
0.294763 0.105901 0.595896
0.28289 0.105916 0.595031
0.296825 0.103885 0.586329
0.287034 0.104206 0.595251
0.300337 0.111012 0.585623
0.302896 0.106778 0.599209
0.315171 0.103412 0.586058
0.308964 0.10105 0.59152
0.304658 0.105669 0.592418
0.302261 0.119796 0.582179
0.321245 0.110409 0.586854
0.337879 0.118198 0.587337
0.335618 0.115013 0.581752
0.332423 0.107356 0.596923
0.328284 0.118149 0.586442
0.325145 0.106225 0.598392
0.347304 0.105026 0.593686
0.358912 0.107324 0.580845
0.350394 0.105999 0.592087
0.34876 0.103046 0.581379
0.341622 0.106628 0.582087
0.35949 0.102877 0.598484
0.363177 0.104528 0.593255
0.376165 0.116027 0.592704
0.361538 0.119181 0.593637
0.365528 0.10964 0.586976
0.360956 0.104688 0.597634
0.377426 0.115633 0.591673
0.382794 0.103677 0.594616
0.391527 0.119628 0.5864
0.38912 0.110313 0.598126
0.391052 0.100462 0.594829
0.398217 0.107263 0.599403
0.393419 0.104996 0.587607
0.416485 0.103674 0.584514
0.404088 0.103303 0.592453
0.410554 0.113339 0.591898
0.417704 0.111313 0.58774
0.401694 0.119379 0.589117
0.418814 0.105289 0.586719
0.438444 0.106635 0.585936
0.439498 0.119398 0.586257
0.428696 0.116478 0.599489
0.435016 0.118963 0.594261
0.436277 0.116335 0.590308
0.438662 0.118864 0.586637
0.455741 0.115531 0.597079
0.442126 0.118611 0.596178
0.458996 0.113313 0.595853
0.449381 0.106681 0.580713
0.455403 0.115647 0.591355
0.455465 0.103851 0.585126
0.474616 0.111155 0.58485
0.477291 0.119227 0.583364
0.461418 0.111961 0.581114
0.465301 0.118388 0.590804
0.47339 0.103775 0.595154
0.464022 0.100734 0.595024
0.491801 0.115634 0.589134
0.493988 0.104141 0.585102
0.481126 0.10119 0.599797
0.48296 0.100886 0.589253
0.492249 0.101724 0.580803
0.489667 0.112563 0.585687
0.502891 0.101568 0.598893
0.502227 0.101245 0.588243
0.504238 0.118981 0.596891
0.518421 0.113191 0.586611
0.505926 0.110734 0.593275
0.502226 0.106475 0.596555
0.525034 0.118909 0.586107
0.539346 0.108467 0.59538
0.522551 0.102207 0.593304
0.521989 0.112699 0.581924
0.525061 0.108636 0.594468
0.539726 0.108907 0.596093
0.54778 0.117643 0.581323
0.541648 0.104697 0.588033
0.544235 0.111334 0.586316
0.552919 0.118388 0.585536
0.544557 0.102789 0.588952
0.557551 0.116422 0.597217
0.572528 0.100383 0.584063
0.574145 0.109751 0.586431
0.572883 0.104144 0.581561
0.571372 0.117095 0.593977
0.563575 0.101355 0.586896
0.567561 0.101443 0.581689
0.584503 0.119447 0.597386
0.596447 0.101458 0.580857
0.585468 0.106057 0.594961
0.593364 0.113852 0.599192
0.586309 0.118894 0.585969
0.584447 0.118144 0.594465
0.615199 0.102986 0.592258
0.619331 0.101932 0.582866
0.601888 0.104826 0.592862
0.612389 0.117954 0.598458
0.616077 0.112386 0.581025
0.603379 0.100471 0.591205
0.633674 0.111044 0.582437
0.639427 0.108221 0.589302
0.632985 0.1032 0.583133
0.625418 0.105877 0.585281
0.630915 0.108293 0.585158
0.622979 0.102117 0.582388
0.648228 0.101358 0.583495
0.654759 0.105903 0.594075
0.644885 0.117444 0.599061
0.6532 0.101094 0.582722
0.645954 0.107244 0.595192
0.646902 0.1005 0.590326
0.660755 0.115841 0.596527
0.669669 0.112586 0.592782
0.66737 0.118271 0.586906
0.670887 0.10291 0.586089
0.671994 0.105885 0.599291
0.662409 0.108529 0.584474
0.693581 0.112075 0.59444
0.687265 0.115913 0.584327
0.683503 0.115694 0.591216
0.694389 0.112749 0.583467
0.688873 0.10295 0.586006
0.699557 0.11314 0.596134
0.708459 0.105668 0.58577
0.718205 0.118807 0.585793
0.708324 0.112668 0.59642
0.71303 0.110976 0.58705
0.70106 0.116205 0.59338
0.712566 0.118838 0.58603
0.734917 0.11432 0.582708
0.726658 0.101181 0.59235
0.725599 0.106004 0.582333
0.732473 0.109518 0.580798
0.724815 0.112892 0.586246
0.720919 0.11189 0.595094
0.740675 0.112103 0.581802
0.741436 0.117088 0.582537
0.745208 0.10937 0.59859
0.747195 0.104545 0.581864
0.747124 0.115717 0.594616
0.74337 0.112813 0.595693
0.772171 0.101975 0.582943
0.777411 0.107816 0.583616
0.773894 0.107318 0.591224
0.772254 0.109281 0.595146
0.774154 0.112996 0.58825
0.772677 0.117213 0.58926
0.791579 0.100628 0.591446
0.795894 0.101295 0.597824
0.79848 0.108534 0.592902
0.791779 0.108301 0.596883
0.799502 0.118821 0.591739
0.794348 0.10631 0.590823
0.808723 0.104389 0.58776
0.818981 0.10408 0.581302
0.805593 0.108025 0.592402
0.804247 0.107994 0.587774
0.816497 0.117956 0.580203
0.811901 0.111823 0.590743
0.821963 0.106485 0.592911
0.830912 0.118188 0.599001
0.838979 0.105069 0.593866
0.837961 0.113024 0.591109
0.822852 0.100785 0.596872
0.832916 0.11597 0.592908
0.848114 0.1138 0.592404
0.85193 0.113865 0.594325
0.854812 0.10861 0.584804
0.845931 0.115594 0.587253
0.844362 0.116522 0.58172
0.846453 0.114624 0.59361
0.873381 0.117189 0.591361
0.877264 0.114926 0.585233
0.868482 0.103803 0.597494
0.869062 0.106199 0.591443
0.872081 0.116057 0.580312
0.867245 0.111112 0.581331
0.884336 0.110225 0.582688
0.881671 0.102128 0.584187
0.881876 0.101392 0.589279
0.884311 0.111647 0.597161
0.897458 0.107385 0.581439
0.896818 0.106324 0.599164
0.0841489 0.125572 0.580437
0.0922404 0.138969 0.584956
0.0994013 0.131822 0.585504
0.0912107 0.12246 0.583438
0.0921035 0.132265 0.582888
0.099637 0.132713 0.592687
0.113936 0.13815 0.595591
0.1186 0.122511 0.590971
0.100763 0.131145 0.597585
0.119667 0.132706 0.586711
0.107568 0.133706 0.597866
0.107437 0.135523 0.598776
0.124089 0.138123 0.582564
0.120206 0.134467 0.588437
0.133999 0.133078 0.580932
0.136998 0.129726 0.586414
0.123215 0.135122 0.58425
0.121805 0.138669 0.596988
0.144462 0.126531 0.595083
0.158218 0.125454 0.593563
0.15127 0.135689 0.58451
0.153841 0.137419 0.585721
0.148681 0.135667 0.594091
0.14553 0.127251 0.586262
0.174551 0.123208 0.595118
0.163277 0.130848 0.58106
0.172363 0.13685 0.594598
0.175218 0.128667 0.598011
0.174783 0.13823 0.58597
0.171501 0.134812 0.593841
0.191375 0.135397 0.580953
0.180739 0.125591 0.586757
0.199064 0.12927 0.587104
0.18059 0.125828 0.595135
0.184738 0.135217 0.596265
0.181583 0.135983 0.59953
0.21456 0.127465 0.58373
0.219066 0.134478 0.598533
0.217618 0.129543 0.590647
0.209758 0.129212 0.586719
0.211305 0.124497 0.587074
0.211298 0.137908 0.587512
0.230953 0.132585 0.594102
0.224769 0.129565 0.592463
0.222225 0.138468 0.586075
0.239182 0.134868 0.587916
0.226685 0.123672 0.583833
0.23346 0.123747 0.581294
0.258037 0.12743 0.596893
0.258248 0.131084 0.584086
0.256834 0.121787 0.583394
0.254699 0.137869 0.582098
0.245845 0.126501 0.589582
0.25347 0.121042 0.589057
0.277205 0.128485 0.589177
0.277064 0.130772 0.593975
0.271546 0.123426 0.582891
0.261698 0.136485 0.589578
0.269033 0.121331 0.583913
0.278796 0.136063 0.59413
0.288181 0.125756 0.596712
0.292019 0.126668 0.581174
0.283061 0.138697 0.589608
0.286481 0.139356 0.588643
0.283031 0.126589 0.59386
0.291192 0.121465 0.585241
0.316829 0.133686 0.592261
0.307457 0.130784 0.586141
0.300675 0.13354 0.594357
0.311744 0.136735 0.587153
0.311417 0.123808 0.583391
0.31341 0.12664 0.58207
0.324044 0.13235 0.582011
0.338069 0.136933 0.597138
0.320755 0.126739 0.596207
0.320813 0.127132 0.589059
0.32327 0.137422 0.595156
0.337398 0.125241 0.586534
0.345584 0.132602 0.597042
0.352274 0.134163 0.58914
0.359272 0.123245 0.581834
0.355335 0.136623 0.584176
0.345382 0.124028 0.586259
0.355654 0.129066 0.591888
0.377545 0.125991 0.594063
0.37525 0.137638 0.58281
0.371628 0.127538 0.586446
0.374481 0.129715 0.591831
0.378497 0.136173 0.585006
0.367653 0.124468 0.596566
0.383616 0.136056 0.593221
0.392926 0.125585 0.583411
0.395569 0.138207 0.598808
0.392363 0.124408 0.596911
0.381313 0.124907 0.59763
0.385654 0.122693 0.587927
0.417577 0.133129 0.586857
0.400744 0.125423 0.591755
0.41583 0.127997 0.59181
0.401427 0.126722 0.595855
0.4163 0.132016 0.589374
0.415766 0.127866 0.589669
0.423532 0.131118 0.583847
0.423297 0.124017 0.597905
0.426419 0.123247 0.581514
0.431328 0.12822 0.584853
0.436333 0.120755 0.585665
0.421644 0.125285 0.593374
0.448135 0.121114 0.597087
0.441254 0.127289 0.597378
0.4435 0.121403 0.585407
0.446601 0.134678 0.593
0.449787 0.137966 0.593735
0.442059 0.126008 0.590587
0.476607 0.125691 0.592955
0.460791 0.124455 0.587434
0.464479 0.132132 0.585713
0.474595 0.133475 0.587414
0.470566 0.120658 0.581331
0.475974 0.120392 0.598652
0.484029 0.123234 0.596726
0.486872 0.12553 0.591861
0.495369 0.137694 0.587416
0.484568 0.136734 0.589372
0.496396 0.128848 0.59215
0.493992 0.121993 0.592733
0.508332 0.127979 0.585303
0.507475 0.122991 0.58909
0.500408 0.130702 0.589664
0.509525 0.123812 0.589522
0.508958 0.138347 0.582927
0.510366 0.134898 0.595353
0.523754 0.134707 0.596187
0.523554 0.133585 0.597821
0.536546 0.133487 0.580746
0.529694 0.122298 0.596951
0.537187 0.133192 0.581195
0.537922 0.134824 0.585801
0.548382 0.135987 0.590457
0.554072 0.133885 0.581238
0.550867 0.133324 0.584846
0.55851 0.13932 0.580755
0.546525 0.128747 0.593324
0.55774 0.127751 0.581335
0.579609 0.128945 0.59904
0.568782 0.12952 0.59301
0.568333 0.122749 0.591962
0.566793 0.138593 0.591569
0.56898 0.127012 0.584395
0.564298 0.124849 0.595458
0.596122 0.120919 0.585026
0.58625 0.121537 0.585607
0.589669 0.124289 0.582088
0.587054 0.124798 0.589654
0.582177 0.121659 0.586555
0.594132 0.134203 0.583888
0.606989 0.127183 0.58812
0.603496 0.137735 0.586477
0.604405 0.122695 0.590698
0.61341 0.126495 0.584154
0.604012 0.128292 0.591155
0.611463 0.125998 0.594678
0.626296 0.136368 0.588679
0.639345 0.132071 0.589283
0.638295 0.12821 0.599716
0.621665 0.136117 0.59936
0.628655 0.135764 0.592076
0.625512 0.123514 0.592219
0.652821 0.135742 0.592617
0.654755 0.131894 0.581378
0.644866 0.129092 0.595359
0.656895 0.131129 0.594921
0.655817 0.128515 0.583402
0.651777 0.126441 0.593879
0.674528 0.12516 0.599401
0.668589 0.121756 0.580293
0.67951 0.13485 0.590371
0.664553 0.128881 0.587935
0.678403 0.128517 0.585817
0.668848 0.139148 0.58117
0.692161 0.123643 0.585878
0.683961 0.1211 0.598067
0.694291 0.122094 0.585046
0.69818 0.134777 0.58149
0.692847 0.12469 0.584876
0.68785 0.121739 0.58726
0.701972 0.125244 0.583363
0.710771 0.132831 0.580973
0.714523 0.132942 0.589155
0.715043 0.138572 0.584902
