ply
format ascii 1.0
element vertex 1758
property float x
property float y
property float z
end_header
0.563824 0.0762618 0.340698
0.572223 0.0633159 0.354867
0.5969 0.0736033 0.34464
0.580507 0.078496 0.351712
0.581163 0.0642773 0.353115
0.592993 0.0625257 0.344986
0.581475 0.0725434 0.355306
0.581505 0.0684462 0.357678
0.601418 0.06512 0.347866
0.606007 0.0651154 0.346757
0.617943 0.0765557 0.34062
0.615187 0.0776835 0.357057
0.61761 0.0614041 0.358898
0.601496 0.0739542 0.347643
0.629768 0.0718746 0.352754
0.631462 0.0787955 0.345753
0.639663 0.0694791 0.342463
0.620225 0.0731274 0.341506
0.625165 0.0708013 0.358343
0.627048 0.079221 0.348332
0.642454 0.0780457 0.346847
0.658045 0.0708611 0.351756
0.656256 0.0683762 0.348204
0.656915 0.0672881 0.345671
0.646561 0.0631973 0.347598
0.645791 0.0737319 0.357994
0.664981 0.0711487 0.34086
0.663661 0.0685357 0.359256
0.662328 0.0623883 0.347314
0.677051 0.0716137 0.348183
0.675521 0.0696337 0.348688
0.670255 0.0685887 0.346015
0.684262 0.0610124 0.35307
0.68175 0.0697288 0.351395
0.684608 0.0644046 0.351235
0.685271 0.0773001 0.34229
0.685062 0.0765415 0.341855
0.692685 0.0690292 0.355567
0.719132 0.0610151 0.345978
0.71236 0.0605561 0.345424
0.708853 0.0676387 0.357542
0.702104 0.0672808 0.355005
0.712959 0.0754918 0.35123
0.715851 0.0791931 0.343623
0.729412 0.0667169 0.344732
0.726363 0.0730466 0.351763
0.725168 0.0676405 0.3463
0.731845 0.075771 0.358153
0.734198 0.0608805 0.359732
0.735655 0.0636602 0.349747
0.751657 0.0666046 0.356306
0.745328 0.0654617 0.35867
0.740976 0.0795483 0.349545
0.755868 0.0665024 0.348036
0.743757 0.0642993 0.355956
0.741136 0.063703 0.34806
0.778677 0.067294 0.355452
0.768231 0.0735409 0.349439
0.768595 0.0779704 0.35966
0.779258 0.0663731 0.346984
0.775706 0.0643551 0.345884
0.76817 0.0768893 0.34743
0.783618 0.0733164 0.346434
0.783576 0.0687609 0.357928
0.780837 0.0717348 0.35288
0.799356 0.0708274 0.35365
0.791892 0.0717069 0.346797
0.795234 0.0622338 0.351313
0.801368 0.0693034 0.34023
0.818011 0.0605674 0.354517
0.808517 0.0714066 0.348826
0.813006 0.0757101 0.35035
0.817187 0.0755398 0.343077
0.819486 0.0691366 0.355065
0.839259 0.0735677 0.348611
0.833863 0.0722863 0.341661
0.836874 0.0773217 0.350593
0.829778 0.0720204 0.358352
0.830852 0.0791803 0.354314
0.826955 0.0796381 0.350251
0.852616 0.0723922 0.357211
0.848499 0.0754816 0.359221
0.841739 0.0619722 0.34971
0.85916 0.0721255 0.34503
0.848311 0.0702883 0.357423
0.841791 0.0679112 0.348691
0.121592 0.0880971 0.346346
0.130855 0.0991458 0.344802
0.123074 0.0988362 0.348237
0.131056 0.0888831 0.34955
0.125929 0.0929996 0.349272
0.13373 0.088193 0.351763
0.14969 0.0948156 0.350413
0.152663 0.0811458 0.358023
0.152954 0.0864435 0.345394
0.150895 0.0949238 0.341609
0.144053 0.0841346 0.358918
0.151368 0.0822439 0.350356
0.171047 0.098342 0.342631
0.165833 0.0933029 0.354194
0.176252 0.0817215 0.341673
0.163854 0.0881413 0.354997
0.160796 0.0987925 0.346213
0.166511 0.0956126 0.359366
0.194451 0.0922031 0.347752
0.188599 0.0955266 0.35606
0.193946 0.0945887 0.351028
0.186792 0.0990135 0.343091
0.182055 0.0991943 0.349241
0.197618 0.0835669 0.347042
0.205089 0.0954838 0.349777
0.206002 0.0995041 0.358953
0.215323 0.0966403 0.351195
0.213576 0.0994601 0.340427
0.207568 0.0874124 0.342117
0.215073 0.0986615 0.347604
0.231116 0.0942536 0.345764
0.227763 0.0929777 0.344275
0.233294 0.094413 0.352464
0.233351 0.0884824 0.343715
0.23893 0.0888811 0.348949
0.227355 0.0947391 0.340645
0.259663 0.0881691 0.358776
0.257182 0.0996136 0.343335
0.250869 0.0811014 0.343947
0.246609 0.0978897 0.350709
0.253219 0.0806358 0.344161
0.246601 0.0809791 0.345779
0.262092 0.0943267 0.351512
0.264389 0.0818007 0.356453
0.272674 0.0839258 0.35872
0.27383 0.0922045 0.353496
0.260329 0.0907845 0.355101
0.271587 0.0968982 0.341635
0.280947 0.0923785 0.354666
0.292288 0.0862668 0.34076
0.295524 0.0810953 0.3416
0.298541 0.0965157 0.354753
0.298502 0.081383 0.353933
0.298916 0.0993839 0.342687
0.305048 0.0934829 0.347498
0.302694 0.0822312 0.341462
0.305052 0.0947607 0.34068
0.303107 0.0866057 0.356896
0.310709 0.0993472 0.343784
0.312485 0.0849084 0.34353
0.33099 0.0860024 0.345243
0.326229 0.0825047 0.342319
0.327819 0.0959842 0.343253
0.325319 0.0945954 0.349291
0.331347 0.0915554 0.3589
0.335091 0.0864928 0.35511
0.355288 0.0824868 0.355933
0.343296 0.0920877 0.35734
0.343163 0.0909473 0.342444
0.344004 0.0854404 0.341554
0.344514 0.0959806 0.352074
0.343579 0.0838548 0.359318
0.370767 0.0941416 0.343705
0.375573 0.0815897 0.35045
0.371262 0.0954886 0.356218
0.375847 0.0924482 0.341806
0.364455 0.0979953 0.34942
0.374044 0.0934917 0.341638
0.393504 0.0830143 0.355877
0.388555 0.081167 0.348101
0.391155 0.0895914 0.340684
0.380657 0.0820161 0.358843
0.394051 0.0970043 0.352837
0.38894 0.0955259 0.353477
0.402656 0.0841653 0.359419
0.409125 0.0824334 0.343843
0.411829 0.0948965 0.358557
0.414746 0.0983199 0.354392
0.416434 0.0874238 0.341867
0.412567 0.0951 0.350667
0.42551 0.0943267 0.358274
0.428488 0.0827207 0.348573
0.42213 0.0868697 0.3457
0.425266 0.090912 0.345877
0.434438 0.0826948 0.349452
0.433918 0.0810589 0.343085
0.448421 0.0922334 0.340576
0.455789 0.0905726 0.343336
0.447309 0.0852993 0.345514
0.452325 0.0877527 0.357495
0.442151 0.0966423 0.355409
0.456505 0.091718 0.343514
0.46583 0.0816589 0.342893
0.477606 0.0861679 0.340926
0.475706 0.0919374 0.353738
0.460819 0.0993312 0.347274
0.466664 0.0980897 0.35156
0.465272 0.0974536 0.348734
0.480379 0.085821 0.344806
0.497867 0.0930163 0.35383
0.486061 0.0880989 0.345839
0.498399 0.0819616 0.352094
0.498876 0.0802776 0.345378
0.495686 0.0846214 0.351691
0.507263 0.0911387 0.342511
0.509632 0.0965483 0.359699
0.500672 0.0824132 0.355717
0.512764 0.0980478 0.3593
0.515848 0.0983284 0.354973
0.519481 0.0906103 0.348094
0.532022 0.09362 0.349284
0.5241 0.0942616 0.341145
0.538276 0.0821407 0.35448
0.532811 0.0845035 0.354484
0.529107 0.0875476 0.355507
0.524248 0.0947911 0.34023
0.558235 0.0980075 0.351504
0.557682 0.0921899 0.356623
0.557591 0.097284 0.342827
0.541817 0.0895898 0.347505
0.558993 0.0936567 0.357426
0.547419 0.0851158 0.355791
0.573678 0.0967345 0.355087
0.564577 0.0964334 0.340772
0.563779 0.0976597 0.341727
0.575904 0.0849852 0.344412
0.567951 0.0928898 0.356167
0.579204 0.0910457 0.346616
0.59634 0.0802176 0.354674
0.596039 0.0974888 0.342528
0.590415 0.0906287 0.350565
0.599003 0.0881506 0.345968
0.590647 0.0965591 0.356535
0.593291 0.0860736 0.358367
0.615135 0.0938482 0.341713
0.60544 0.0993181 0.345221
0.600982 0.0950289 0.341362
0.606734 0.0872623 0.358109
0.617835 0.0981068 0.345073
0.611965 0.0853268 0.346638
0.63789 0.0809403 0.355721
0.623581 0.0920432 0.356831
0.629239 0.0977832 0.349333
0.620645 0.0848518 0.356584
0.631921 0.0958203 0.347769
0.630295 0.0988488 0.347497
0.659717 0.0962173 0.353185
0.655592 0.0979576 0.356148
0.657734 0.0840532 0.356203
0.653266 0.0862076 0.350931
0.641848 0.0855437 0.34322
0.658809 0.0829452 0.342851
0.660509 0.081188 0.345811
0.67456 0.0881479 0.355779
0.66336 0.0897729 0.343336
0.663724 0.0958139 0.342652
0.675539 0.0876244 0.34257
0.663647 0.085956 0.355125
0.686021 0.0957465 0.351938
0.685046 0.0802041 0.348983
0.692476 0.0931818 0.355702
0.68807 0.0887501 0.347757
0.692057 0.0829816 0.355657
0.693578 0.0808086 0.344252
0.71912 0.0878611 0.348795
0.710394 0.0805376 0.351492
0.702957 0.0926441 0.34385
0.71308 0.0840348 0.3489
0.711764 0.0929524 0.34301
0.7134 0.0832523 0.341404
0.723194 0.0973038 0.342087
0.73506 0.0826215 0.341504
0.726 0.0954112 0.34387
0.733279 0.0939941 0.342981
0.737184 0.08056 0.351973
0.730798 0.0991391 0.340473
0.743878 0.0919819 0.358015
0.745491 0.0812355 0.359454
0.749605 0.094331 0.34227
0.754962 0.0832874 0.350613
0.750223 0.0810095 0.355686
0.757064 0.0926272 0.347093
0.778116 0.0970549 0.355044
0.77392 0.0847409 0.357512
0.77616 0.0941965 0.341489
0.77413 0.081928 0.343914
0.778856 0.0912214 0.353988
0.760464 0.0945901 0.350484
0.796835 0.0921415 0.353301
0.788007 0.0890667 0.343986
0.794781 0.0843086 0.343769
0.791416 0.0986455 0.3504
0.797068 0.0854774 0.348888
0.78954 0.094512 0.3586
0.807558 0.0910953 0.353153
0.814554 0.0925292 0.345034
0.808439 0.0994734 0.342976
0.811834 0.0932554 0.358098
0.811697 0.0917422 0.3429
0.805806 0.0857163 0.353514
0.829069 0.0908243 0.342357
0.830258 0.0960595 0.356628
0.831512 0.099083 0.358056
0.823811 0.0827331 0.35385
0.832244 0.0962321 0.347614
0.834556 0.0944206 0.343123
0.846051 0.0924315 0.344556
0.854113 0.0960613 0.359046
0.842293 0.0903195 0.354504
0.848024 0.0978291 0.343678
0.841651 0.081043 0.34837
0.844297 0.0819072 0.352191
0.871309 0.0816193 0.345202
0.861433 0.0991631 0.35904
0.879774 0.0895668 0.346906
0.871657 0.0943043 0.356137
0.865335 0.0956753 0.348827
0.866718 0.0841545 0.349094
0.107142 0.10314 0.358094
0.115628 0.111605 0.343304
0.109081 0.114257 0.35554
0.112829 0.100579 0.353766
0.119579 0.106426 0.3474
0.112611 0.101781 0.348178
0.134187 0.109524 0.34388
0.139676 0.11399 0.354889
0.127209 0.103475 0.355422
0.133538 0.112516 0.359355
0.128499 0.100731 0.345109
0.126612 0.102977 0.35745
0.143215 0.105902 0.349021
0.159667 0.109003 0.357459
0.154604 0.115971 0.346663
0.148202 0.100677 0.346923
0.158991 0.115691 0.340878
0.146163 0.102829 0.356733
0.174021 0.110805 0.345995
0.171909 0.113934 0.359131
0.162517 0.1128 0.34888
0.161715 0.104927 0.349133
0.171453 0.118145 0.345854
0.177713 0.113585 0.359239
0.192567 0.102891 0.34225
0.193401 0.100383 0.350596
0.18021 0.107778 0.341064
0.182292 0.117859 0.348033
0.195355 0.106712 0.356972
0.190233 0.115822 0.351603
0.215226 0.11832 0.350743
0.209589 0.111138 0.342734
0.216388 0.119351 0.351703
0.202437 0.116915 0.357827
0.203616 0.115699 0.343179
0.212155 0.112869 0.342686
0.234128 0.101685 0.342339
0.236199 0.116911 0.345248
0.221564 0.100389 0.359265
0.232169 0.114116 0.35173
0.22561 0.106869 0.344197
0.223552 0.104613 0.343301
0.259127 0.105192 0.348168
0.24615 0.117833 0.347268
0.254826 0.117424 0.347689
0.240372 0.101872 0.352017
0.254419 0.115875 0.344405
0.241032 0.113626 0.352152
0.266052 0.100601 0.349477
0.263031 0.101954 0.35085
0.27565 0.115489 0.356037
0.266567 0.111243 0.350204
0.271041 0.119727 0.358417
0.26729 0.113168 0.342834
0.295883 0.116215 0.35602
0.283014 0.111414 0.353127
0.283919 0.11372 0.343241
0.297397 0.103669 0.358618
0.295325 0.102703 0.359424
0.283826 0.114322 0.342306
0.311223 0.108807 0.353951
0.308421 0.113173 0.347808
0.318322 0.106018 0.351429
0.308709 0.110856 0.354817
0.304273 0.117481 0.347399
0.317339 0.10846 0.352841
0.332227 0.118399 0.348836
0.333202 0.116778 0.353965
0.321084 0.101278 0.350879
0.328596 0.115164 0.356133
0.338125 0.112931 0.34565
0.321711 0.114575 0.346778
0.35174 0.116735 0.347595
0.345099 0.117557 0.357827
0.349469 0.108482 0.355943
0.344577 0.10218 0.349644
0.343326 0.109475 0.356482
0.341957 0.107689 0.3592
0.369365 0.108105 0.349642
0.361125 0.101421 0.343975
0.371692 0.10893 0.340781
0.373552 0.108087 0.345433
0.364588 0.100267 0.349525
0.363766 0.114937 0.344116
0.388527 0.113165 0.348672
0.383041 0.100813 0.356887
0.392561 0.110287 0.344965
0.399045 0.109324 0.340637
0.398354 0.102914 0.356963
0.39134 0.105951 0.342692
0.41613 0.104291 0.343171
0.413722 0.100707 0.343665
0.408542 0.112468 0.343454
0.411811 0.107274 0.35851
0.416972 0.104309 0.342689
0.406359 0.116185 0.356103
0.42099 0.106764 0.359684
0.423352 0.105013 0.345418
0.431511 0.103902 0.356724
0.428068 0.112049 0.344954
0.427738 0.119657 0.349087
0.425781 0.114907 0.349472
0.446064 0.118043 0.346891
0.456847 0.113603 0.342627
0.448642 0.107354 0.348987
0.448688 0.10501 0.351111
0.44536 0.106148 0.34269
0.456167 0.100209 0.357618
0.463941 0.118558 0.347153
0.464058 0.101998 0.352118
0.462192 0.104213 0.358787
0.461341 0.101885 0.350593
0.473419 0.103832 0.342658
0.466973 0.115675 0.346493
0.483992 0.115073 0.341771
0.486391 0.108535 0.357652
0.493578 0.101887 0.346614
0.481007 0.100934 0.353354
0.493816 0.110419 0.344455
0.493885 0.107832 0.347331
0.501899 0.119482 0.350668
0.519245 0.114678 0.356313
0.500775 0.107167 0.348844
0.518804 0.119233 0.34976
0.502293 0.119035 0.353407
0.501834 0.108984 0.342346
0.528086 0.10625 0.345364
0.536677 0.102795 0.354449
0.537596 0.108102 0.343309
0.537413 0.111317 0.346603
0.527744 0.119128 0.352386
0.538479 0.113437 0.355992
0.540422 0.10059 0.352641
0.550263 0.111477 0.346475
0.544222 0.107223 0.340368
0.547523 0.106524 0.344517
0.548166 0.101815 0.348456
0.551765 0.101042 0.354863
0.567697 0.101896 0.340323
0.566344 0.101062 0.351034
0.57339 0.108092 0.341307
0.569676 0.114532 0.345366
0.577395 0.11101 0.353478
0.576212 0.101654 0.343363
0.584119 0.108138 0.349341
0.596981 0.102129 0.341196
0.592856 0.113295 0.354206
0.583379 0.100993 0.342504
0.585139 0.107651 0.35155
0.598633 0.119017 0.352025
0.609488 0.116775 0.347754
0.60854 0.108069 0.359469
0.609163 0.112787 0.353265
0.618278 0.10625 0.345949
0.608014 0.102681 0.346509
0.601353 0.109655 0.358526
0.636763 0.111109 0.342316
0.62383 0.105416 0.35358
0.637221 0.115191 0.342799
0.628363 0.108879 0.347105
0.638385 0.101571 0.341961
0.627703 0.115323 0.347465
0.646351 0.101522 0.343401
0.655219 0.100882 0.344496
0.654042 0.10386 0.356145
0.644727 0.114562 0.346031
0.642666 0.106265 0.342941
0.644691 0.104598 0.348254
0.666229 0.112902 0.350664
0.66966 0.111844 0.354177
0.671561 0.107589 0.352403
0.662227 0.119516 0.348161
0.676586 0.113578 0.355002
0.679348 0.101629 0.350393
0.69404 0.10655 0.351898
0.683571 0.116974 0.359522
0.6924 0.109154 0.349354
0.685199 0.10433 0.344622
0.696069 0.117408 0.352969
0.680423 0.102431 0.350307
0.714666 0.106345 0.345232
0.718166 0.117621 0.344948
0.714083 0.101145 0.343793
0.714396 0.101838 0.353609
0.713821 0.108812 0.340769
0.718614 0.10722 0.358688
0.722385 0.110944 0.352909
0.735668 0.112417 0.359606
0.73542 0.111151 0.350875
0.728696 0.110513 0.352035
0.721278 0.119091 0.344113
0.723405 0.110955 0.346283
0.752442 0.11474 0.349719
0.752831 0.104122 0.343966
0.74561 0.103262 0.340993
0.754263 0.11237 0.35076
0.749003 0.11157 0.351513
0.742747 0.111412 0.344043
0.768774 0.100456 0.35439
0.766145 0.104972 0.355598
0.761482 0.105359 0.353593
0.774716 0.104895 0.346591
0.761708 0.102987 0.353884
0.764614 0.111971 0.350286
0.793209 0.117466 0.350512
0.78193 0.107474 0.358037
0.78737 0.116778 0.349589
0.783953 0.111746 0.353441
0.78569 0.110344 0.348155
0.797122 0.117699 0.350462
0.804485 0.1112 0.354364
0.806239 0.104226 0.343734
0.808076 0.111215 0.344504
0.818768 0.106259 0.34408
0.803268 0.118384 0.358178
0.818086 0.11121 0.343587
0.820668 0.109231 0.350866
0.826783 0.10414 0.354604
0.832119 0.113144 0.359421
0.834739 0.114521 0.342026
0.828767 0.107716 0.34361
0.834307 0.11312 0.356973
0.859206 0.106171 0.359307
0.847877 0.111724 0.344808
0.844792 0.111214 0.340611
0.840313 0.105095 0.357687
0.850685 0.109568 0.353305
0.847179 0.115688 0.349482
0.876482 0.117888 0.349021
0.867336 0.101532 0.341634
0.862271 0.116963 0.35511
0.866083 0.117562 0.34623
0.869763 0.108904 0.341381
0.875181 0.111036 0.358856
0.893682 0.118609 0.354372
0.885178 0.110757 0.356569
0.895592 0.101551 0.356472
0.892387 0.109547 0.355344
0.890503 0.119124 0.344607
0.888952 0.118762 0.348697
0.090655 0.135519 0.351259
0.0868978 0.131593 0.343401
0.0809734 0.12234 0.346409
0.0917905 0.139665 0.344811
0.0811801 0.123196 0.352303
0.0853054 0.121108 0.346133
0.112126 0.128454 0.345008
0.107958 0.122093 0.345802
0.116099 0.125525 0.352089
0.101803 0.136605 0.342069
0.110396 0.124059 0.356201
0.116074 0.123128 0.344772
0.122082 0.12127 0.348333
0.138131 0.133217 0.353189
0.12068 0.136681 0.347594
0.134257 0.137132 0.349016
0.134846 0.123945 0.348212
0.132256 0.127135 0.35952
0.154493 0.130875 0.343124
0.147019 0.129428 0.359231
0.158793 0.129695 0.352701
0.147451 0.127175 0.342358
0.148521 0.133308 0.345465
0.140592 0.13962 0.346934
0.167785 0.131797 0.346598
0.176707 0.139532 0.346183
0.163045 0.120432 0.346629
0.16319 0.124221 0.353723
0.166195 0.122055 0.346007
0.167969 0.12035 0.348894
0.186412 0.134907 0.349347
0.183601 0.136044 0.348479
0.187989 0.126627 0.344941
0.185837 0.124539 0.354414
0.196682 0.129092 0.341222
0.192233 0.135493 0.357022
0.213391 0.12694 0.355922
0.219546 0.130761 0.357826
0.208723 0.124682 0.354963
0.206016 0.136539 0.353707
0.211978 0.125509 0.354977
0.200597 0.137269 0.345556
0.235185 0.129091 0.35422
0.226883 0.122578 0.351838
0.239628 0.127888 0.352842
0.222071 0.129724 0.358486
0.225395 0.120331 0.342542
0.222858 0.128774 0.357272
0.252197 0.135432 0.357512
0.250908 0.124991 0.356968
0.259791 0.134317 0.343305
0.248733 0.126652 0.349669
0.249065 0.138047 0.347398
0.247664 0.125786 0.347351
0.271017 0.128662 0.341702
0.265566 0.124269 0.358535
0.261165 0.126218 0.347123
0.278053 0.124598 0.351152
0.266818 0.132825 0.340858
0.277315 0.129348 0.356085
0.290991 0.126982 0.359182
0.294247 0.133924 0.352809
0.296335 0.128073 0.343257
0.294787 0.126602 0.355814
0.281996 0.12217 0.347243
0.29658 0.126616 0.346604
0.31142 0.131852 0.348554
0.307809 0.124706 0.343958
0.314458 0.121509 0.35542
0.311668 0.125959 0.358008
0.314859 0.127497 0.357143
0.310574 0.129567 0.350678
0.328626 0.126882 0.34728
0.325921 0.138958 0.354438
0.32527 0.13028 0.340334
0.322057 0.132205 0.350734
0.337718 0.12979 0.359583
0.337023 0.133483 0.35307
0.347883 0.130331 0.351592
0.3571 0.136093 0.344138
0.348412 0.130644 0.359053
0.345655 0.131397 0.343426
0.349273 0.133859 0.346697
0.355159 0.139749 0.359387
0.365715 0.137981 0.354002
0.375741 0.126181 0.349318
0.363104 0.126324 0.359484
0.374384 0.139742 0.341275
0.367146 0.127317 0.358451
0.369345 0.130848 0.341859
0.386211 0.12909 0.35458
0.380815 0.123602 0.340712
0.383006 0.126401 0.34787
0.397429 0.122338 0.34964
0.397188 0.12116 0.347993
0.388635 0.138867 0.344081
0.411821 0.125354 0.352952
0.411628 0.126691 0.341154
0.417575 0.138077 0.355277
0.40305 0.126274 0.344637
0.417771 0.137923 0.354486
0.408991 0.1233 0.359655
0.424659 0.131497 0.340217
0.435897 0.123935 0.34115
0.435221 0.13044 0.353036
0.428874 0.124186 0.356113
0.426671 0.121061 0.34381
0.420302 0.12759 0.353571
0.4476 0.12558 0.35448
0.455325 0.139028 0.342515
0.448595 0.127895 0.34558
0.4509 0.138798 0.344604
0.448691 0.133519 0.35733
0.448386 0.133952 0.359706
0.463723 0.134836 0.358944
0.467486 0.135343 0.354049
0.471015 0.121722 0.345026
0.470727 0.13536 0.353931
0.467841 0.135616 0.352112
0.475693 0.124128 0.35209
0.486271 0.122888 0.342235
0.489404 0.13605 0.355583
0.493578 0.135324 0.344303
0.485093 0.132514 0.346963
0.487447 0.121538 0.346974
0.48691 0.12202 0.354994
0.515993 0.13203 0.357947
0.504968 0.129237 0.357835
0.517879 0.135754 0.345803
0.5089 0.131721 0.347453
0.517283 0.136619 0.34125
0.508464 0.133346 0.345365
0.520536 0.121849 0.357256
0.53492 0.126178 0.3514
0.5206 0.136654 0.35567
0.52258 0.135878 0.342069
0.522868 0.128432 0.347349
0.534524 0.121307 0.351085
0.554917 0.123119 0.348624
0.553597 0.123385 0.344543
0.541187 0.127351 0.340342
0.551772 0.134468 0.348882
0.557716 0.123258 0.349682
0.555696 0.131058 0.346654
0.568502 0.125045 0.352016
0.561082 0.135189 0.35237
0.564614 0.120683 0.344318
0.572982 0.120562 0.350616
0.576763 0.121632 0.353747
0.566467 0.124695 0.340248
0.598116 0.136058 0.344595
0.595033 0.13228 0.353351
0.592448 0.127034 0.3513
0.596566 0.123421 0.342651
0.592505 0.121485 0.345015
0.58048 0.121157 0.359306
0.607145 0.123868 0.343867
0.601954 0.128735 0.353924
0.615233 0.122843 0.349477
0.603061 0.136678 0.358498
0.61358 0.128129 0.344132
0.607863 0.120928 0.35892
0.625487 0.138657 0.357659
0.622263 0.121357 0.353889
0.639156 0.1353 0.356272
0.634368 0.120816 0.355511
0.623928 0.124743 0.352906
0.623776 0.121305 0.35285
0.645137 0.125604 0.354268
0.658193 0.134983 0.343197
0.649471 0.136238 0.343247
0.653864 0.139375 0.34408
0.6558 0.131249 0.345309
0.65662 0.124437 0.353778
0.668562 0.137891 0.341262
0.669582 0.122145 0.344548
0.67166 0.131643 0.345354
0.673741 0.13218 0.343394
0.677107 0.124693 0.356153
0.661124 0.139389 0.343537
0.680441 0.12854 0.340715
0.68905 0.120594 0.344786
0.697827 0.125681 0.349788
0.684028 0.132208 0.341979
0.692077 0.127939 0.350477
0.699771 0.136443 0.342127
0.71538 0.139359 0.340849
0.719564 0.132633 0.343591
0.712945 0.120711 0.353726
0.702438 0.124286 0.34634
0.702022 0.122731 0.354408
0.711744 0.12783 0.346243
0.738008 0.123549 0.351348
0.722385 0.130729 0.342483
0.726319 0.134309 0.347083
0.736216 0.138852 0.347393
0.7354 0.123055 0.351555
0.724081 0.123032 0.351516
0.742138 0.126149 0.351091
0.759247 0.123178 0.349271
0.753107 0.127314 0.342891
0.750787 0.131048 0.34675
0.74277 0.13516 0.342442
0.754821 0.13722 0.356875
0.771702 0.123016 0.342999
0.761492 0.132146 0.345836
0.774481 0.133375 0.343665
0.773925 0.133443 0.357503
0.776721 0.123868 0.342727
0.763104 0.138908 0.357928
0.786194 0.122758 0.347215
0.79242 0.126833 0.347695
0.793266 0.138849 0.353039
0.799014 0.127123 0.354729
0.790853 0.133632 0.359584
0.790727 0.127821 0.353395
0.813986 0.13205 0.346273
0.801052 0.137689 0.352096
0.801967 0.134521 0.34716
0.808865 0.135569 0.350495
0.81627 0.13272 0.353981
0.804635 0.127007 0.358123
0.820456 0.130607 0.3537
0.831378 0.127326 0.356351
0.832866 0.128819 0.341495
0.832821 0.136407 0.345609
0.831217 0.13767 0.346191
0.83406 0.133789 0.350558
0.856188 0.137359 0.347892
0.847243 0.135082 0.356273
0.85386 0.136713 0.354493
0.855914 0.121345 0.346637
0.854533 0.135023 0.347157
0.843682 0.126458 0.349422
0.864047 0.129065 0.357489
0.867147 0.133548 0.349611
0.860329 0.121404 0.356073
0.860557 0.133869 0.350365
0.870963 0.136359 0.34186
0.872793 0.127827 0.343629
0.893638 0.13575 0.34414
0.884493 0.133703 0.353842
0.886958 0.133687 0.34712
0.882574 0.121282 0.353999
0.895949 0.125689 0.35331
0.882302 0.126007 0.359454
0.909118 0.124705 0.346162
0.917843 0.132541 0.345658
0.911072 0.134906 0.353727
0.906014 0.120291 0.344562
0.918786 0.134779 0.356853
0.918543 0.131279 0.348454
0.0814724 0.142847 0.351752
0.0817238 0.1436 0.341292
0.098129 0.141185 0.340916
0.0997638 0.155192 0.351739
0.0851558 0.153839 0.343079
0.0933488 0.143792 0.355331
0.11165 0.152123 0.342819
0.117374 0.140584 0.35592
0.102002 0.144748 0.358764
0.114452 0.149502 0.345986
0.102535 0.151273 0.35927
0.103709 0.156262 0.34407
0.12639 0.154373 0.352794
0.122782 0.145314 0.359367
0.127175 0.149282 0.355187
0.125809 0.143659 0.345213
0.121807 0.141505 0.352355
0.123352 0.144479 0.340648
0.140955 0.141095 0.350828
0.156678 0.14314 0.343741
0.145795 0.154486 0.353085
0.149272 0.143037 0.345201
0.148063 0.147513 0.358425
0.145539 0.142319 0.347796
0.174198 0.159788 0.347902
0.175564 0.150476 0.351021
0.172152 0.146111 0.34403
0.162346 0.156538 0.353471
0.167105 0.158892 0.341197
0.171603 0.145071 0.349061
0.199758 0.153444 0.346209
0.188681 0.148942 0.356064
0.192364 0.147147 0.342456
0.196265 0.145666 0.350288
0.184871 0.142829 0.351799
0.198613 0.153655 0.349469
0.204036 0.157149 0.353454
0.215013 0.144121 0.355252
0.215483 0.153127 0.358042
0.212373 0.155645 0.346812
0.210401 0.151295 0.354846
0.20965 0.155261 0.34898
0.234493 0.142773 0.357171
0.227489 0.146153 0.347827
0.226615 0.152865 0.346061
0.233699 0.147892 0.352589
0.225794 0.148743 0.341781
0.222451 0.152635 0.344868
0.256923 0.142758 0.355718
0.259155 0.155874 0.348706
0.244523 0.156677 0.356346
0.256253 0.159189 0.34134
0.25401 0.149161 0.346256
0.254278 0.142621 0.343026
0.262932 0.140504 0.354608
0.274303 0.15549 0.355869
0.262596 0.159101 0.340411
0.275463 0.1456 0.340778
0.2783 0.149565 0.358188
0.260564 0.151062 0.354704
0.288205 0.147239 0.359126
0.295605 0.147944 0.356674
0.285129 0.159732 0.347531
0.292905 0.143955 0.351485
0.29818 0.150508 0.358747
0.289178 0.157328 0.349273
0.307109 0.152668 0.349268
0.310922 0.147902 0.355017
0.310517 0.141448 0.357597
0.307017 0.159574 0.354771
0.303283 0.143853 0.355075
0.316962 0.153641 0.348622
0.337634 0.154805 0.35685
0.333038 0.142094 0.342801
0.326562 0.150463 0.341814
0.322369 0.153316 0.349668
0.333613 0.142188 0.35103
0.334794 0.14177 0.359278
0.357252 0.147965 0.345231
0.344867 0.146949 0.351585
0.356382 0.157252 0.354666
0.345908 0.154799 0.341468
0.34174 0.156915 0.347322
0.343632 0.141007 0.343384
0.376925 0.154833 0.357567
0.373222 0.146749 0.351517
0.378734 0.159491 0.344755
0.362626 0.141911 0.355657
0.377869 0.150909 0.34468
0.375021 0.149145 0.341624
0.391537 0.147628 0.354873
0.389524 0.141765 0.345787
0.39933 0.148459 0.347776
0.382073 0.149591 0.34763
0.383932 0.159549 0.342735
0.386943 0.157272 0.353188
0.40903 0.152578 0.342604
0.414528 0.143656 0.355491
0.418909 0.15197 0.341987
0.415249 0.151271 0.342356
0.41974 0.151203 0.343603
0.417521 0.156121 0.350766
0.434002 0.151609 0.346746
0.421979 0.155337 0.351918
0.428905 0.142627 0.355673
0.429339 0.14474 0.343684
0.430574 0.154108 0.343051
0.426292 0.149546 0.358813
0.453254 0.14624 0.342019
0.451037 0.14406 0.343418
0.452585 0.155689 0.352929
0.454279 0.141353 0.347912
0.441496 0.158149 0.348644
0.444681 0.158657 0.348062
0.463698 0.158679 0.357194
0.47923 0.146709 0.349723
0.462922 0.143296 0.356889
0.472188 0.148095 0.343249
0.478619 0.14928 0.358055
0.464891 0.145407 0.344928
0.491674 0.151053 0.355558
0.49887 0.147222 0.353494
0.497212 0.14495 0.340234
0.481727 0.148006 0.347194
0.483795 0.152978 0.341575
0.493978 0.156519 0.343723
0.504958 0.1569 0.355832
0.512837 0.148847 0.341065
0.503695 0.156989 0.35931
0.514928 0.153172 0.347206
0.50124 0.156387 0.358246
0.506515 0.145883 0.340948
0.531891 0.141737 0.354807
0.527501 0.143608 0.345445
0.534058 0.154926 0.355743
0.538466 0.148227 0.344384
0.536405 0.156392 0.356013
0.535889 0.150384 0.3434
0.547548 0.146745 0.343692
0.543489 0.155124 0.358845
0.54316 0.145396 0.347747
0.545614 0.150836 0.358888
0.556254 0.153573 0.349211
0.54816 0.14768 0.354293
0.567702 0.15424 0.354716
0.572501 0.154526 0.35867
0.5743 0.14565 0.357078
0.573592 0.140705 0.346665
0.562994 0.14274 0.346425
0.571075 0.151441 0.340908
0.594008 0.146602 0.354384
0.593599 0.141516 0.34054
0.595979 0.1555 0.356555
0.583507 0.150666 0.357878
0.582091 0.140572 0.352748
0.587441 0.153383 0.355325
0.603285 0.152266 0.357325
0.618083 0.154786 0.354251
0.610794 0.143151 0.345748
0.606127 0.148665 0.348528
0.601867 0.158491 0.341539
0.612172 0.143786 0.34066
0.624067 0.152974 0.344578
0.639179 0.154001 0.342884
0.624864 0.146422 0.357395
0.628808 0.149551 0.343114
0.635232 0.152384 0.343395
0.628117 0.145092 0.35617
0.644914 0.141791 0.355708
0.658522 0.152404 0.353477
0.655655 0.142856 0.347088
0.656163 0.151725 0.341417
0.647437 0.148991 0.340318
0.650856 0.140326 0.34328
0.675556 0.153279 0.345306
0.672066 0.156695 0.349619
0.666884 0.148709 0.344197
0.675174 0.142407 0.348004
0.66623 0.141239 0.34416
0.667778 0.152127 0.350916
0.699537 0.149107 0.345391
0.697076 0.150833 0.355242
0.694509 0.148555 0.35919
0.698879 0.152714 0.348293
0.69376 0.141229 0.357819
0.68728 0.140364 0.35311
0.709696 0.153067 0.348555
0.714562 0.142409 0.345432
0.711819 0.143312 0.348017
0.701685 0.15217 0.356255
0.716773 0.140557 0.354912
0.706068 0.159688 0.341101
0.72375 0.153254 0.358627
0.723399 0.148803 0.356782
0.731883 0.14423 0.349442
0.729639 0.154608 0.348179
0.737737 0.155214 0.348174
0.734057 0.152599 0.351269
0.749427 0.156528 0.350351
0.759163 0.151406 0.342911
0.746483 0.150703 0.345053
0.746045 0.15437 0.343101
0.746635 0.141315 0.357431
0.748459 0.154402 0.346623
0.779099 0.146917 0.354408
0.775767 0.152403 0.352325
0.766935 0.146062 0.344482
0.763129 0.147175 0.344695
0.762271 0.150316 0.358502
0.76772 0.145473 0.351999
0.785144 0.154618 0.354932
0.799021 0.147394 0.347908
0.797063 0.145325 0.346885
0.783291 0.154819 0.348161
0.781791 0.150441 0.350238
0.796216 0.145007 0.346033
0.81102 0.14134 0.358726
0.814524 0.153881 0.357638
0.806767 0.145811 0.340745
0.805628 0.152971 0.344476
0.815707 0.15555 0.354306
0.816408 0.155031 0.34291
0.836867 0.140686 0.342329
0.837468 0.156478 0.348781
0.838204 0.147169 0.349742
0.822727 0.156208 0.343431
0.827098 0.156848 0.35911
0.830941 0.154284 0.343974
0.853203 0.140781 0.34605
0.845919 0.152143 0.353555
0.844794 0.154962 0.356819
0.851557 0.155857 0.348087
0.849445 0.147211 0.342205
0.847348 0.159078 0.345195
0.865802 0.147472 0.341038
0.872376 0.154103 0.343495
0.863892 0.145919 0.341615
0.868346 0.147327 0.346376
0.876209 0.156391 0.340551
0.868058 0.141614 0.344979
0.885027 0.144889 0.356447
0.894009 0.143158 0.351351
0.893062 0.149532 0.356963
0.899152 0.154071 0.350946
0.888822 0.151652 0.355399
0.8859 0.148561 0.348511
0.912341 0.151709 0.342956
0.917375 0.145646 0.359613
0.915178 0.147139 0.357603
0.913055 0.15818 0.354979
0.907008 0.150769 0.359263
0.901872 0.148765 0.348522
0.232733 0.025796 0.367073
0.237882 0.0331368 0.360939
0.226931 0.0310451 0.371022
0.222508 0.0371031 0.368021
0.230244 0.0274844 0.362963
0.225107 0.0342807 0.371001
0.251689 0.0351493 0.365469
0.243621 0.028944 0.370949
0.246557 0.0249184 0.370875
0.248663 0.0322863 0.36389
0.241216 0.0342132 0.378521
0.241884 0.0308914 0.379211
0.261445 0.0325778 0.361152
0.276171 0.0272805 0.360659
0.269604 0.0341789 0.370315
0.260479 0.031058 0.376154
0.264372 0.0225177 0.36074
0.275322 0.023251 0.368176
0.294195 0.0239204 0.368969
0.298144 0.0272441 0.363567
0.297795 0.026646 0.36692
0.289452 0.0303943 0.366858
0.281818 0.0374932 0.365155
0.295969 0.0303765 0.37641
0.310297 0.0223289 0.368416
0.314064 0.0205617 0.375496
0.313872 0.0225143 0.368276
0.317561 0.0387831 0.376511
0.313251 0.0343177 0.367383
0.307435 0.0247688 0.370641
0.330427 0.039445 0.375319
0.335753 0.0382931 0.367773
0.338149 0.0302079 0.371812
0.336029 0.0382109 0.365816
0.322209 0.029371 0.365703
0.327217 0.0365398 0.362949
0.340238 0.0275182 0.375579
0.342271 0.0209619 0.37455
0.348441 0.028621 0.365358
0.344801 0.0236984 0.360342
0.349225 0.0208025 0.378049
0.342748 0.0296105 0.370454
0.371492 0.0306518 0.361983
0.365379 0.0384714 0.361117
0.37846 0.0342874 0.360519
0.372234 0.0202453 0.364601
0.378857 0.039173 0.378959
0.377835 0.0340409 0.363898
0.398362 0.0324072 0.367703
0.393408 0.0366547 0.370209
0.386598 0.0229939 0.371526
0.398809 0.037108 0.374514
0.380251 0.0320682 0.363054
0.385306 0.0397769 0.360494
0.407419 0.0282658 0.363224
0.41908 0.0233576 0.367008
0.4089 0.0339658 0.378349
0.403712 0.0364101 0.373726
0.409296 0.0256739 0.37688
0.403876 0.0373707 0.360676
0.422904 0.0228017 0.3696
0.422251 0.0342673 0.372182
0.435031 0.0332092 0.375687
0.427195 0.0366384 0.374367
0.420462 0.0285564 0.378055
0.421503 0.034251 0.366354
0.44031 0.0240949 0.371512
0.459658 0.0388201 0.373327
0.441721 0.0377211 0.375473
0.444056 0.0315513 0.376358
0.454934 0.0202432 0.367337
0.453759 0.0343753 0.376707
0.476105 0.0289989 0.361521
0.472814 0.0225604 0.3689
0.468469 0.0331222 0.375647
0.474368 0.0202299 0.376911
0.474584 0.0260755 0.377143
0.466952 0.0215382 0.372953
0.483865 0.0369192 0.362142
0.487045 0.027066 0.372624
0.489632 0.0341747 0.361651
0.488458 0.027759 0.363838
0.496203 0.0380072 0.364645
0.48216 0.0239151 0.378422
0.503438 0.0215121 0.373893
0.500939 0.0349075 0.365263
0.513475 0.029736 0.3786
0.516455 0.0320866 0.378971
0.510942 0.0349483 0.368966
0.506869 0.0381319 0.366334
0.531334 0.0257922 0.360956
0.537803 0.0309878 0.379037
0.530668 0.0303827 0.364827
0.522026 0.0275744 0.374229
0.529509 0.0251582 0.373967
0.52929 0.0276867 0.369565
0.540879 0.0252845 0.371701
0.554045 0.0277061 0.36823
0.552497 0.0220285 0.370647
0.549792 0.0260138 0.378255
0.542393 0.0308332 0.362298
0.557737 0.0392258 0.362009
0.56673 0.0395599 0.363425
0.567843 0.0229714 0.374205
0.561965 0.0346644 0.36889
0.561748 0.0319294 0.377753
0.569687 0.0249933 0.373015
0.562303 0.0352447 0.361415
0.590408 0.0315403 0.378493
0.598021 0.0382896 0.369318
0.584763 0.0324523 0.375845
0.585109 0.0204394 0.377964
0.593759 0.0262879 0.365192
0.595814 0.0393509 0.366797
0.61156 0.0378188 0.371098
0.617884 0.021898 0.379009
0.604384 0.0367506 0.378484
0.615587 0.0274879 0.377163
0.606937 0.0313548 0.377367
0.614344 0.0207514 0.360968
0.624443 0.0386037 0.379526
0.633285 0.0326449 0.368989
0.623033 0.0378365 0.36807
0.632253 0.0227745 0.361744
0.631103 0.0293885 0.379011
0.62037 0.0297214 0.367873
0.652976 0.0313611 0.3622
0.654002 0.0321873 0.378547
0.651233 0.0290228 0.377972
0.642628 0.0388786 0.379594
0.651089 0.0329568 0.373211
0.652745 0.0385776 0.366547
0.660493 0.0325945 0.366335
0.676667 0.0202367 0.360992
0.673724 0.0293958 0.369723
0.660631 0.0393317 0.375868
0.667259 0.0343529 0.367771
0.674115 0.0335043 0.365137
0.692332 0.032415 0.377645
0.682845 0.035314 0.363769
0.696321 0.0275557 0.367538
0.698178 0.0222617 0.3666
0.695388 0.0354031 0.371138
0.681673 0.039103 0.372006
0.708458 0.0344329 0.378525
0.712624 0.0326166 0.374202
0.710871 0.027048 0.37909
0.70232 0.0308432 0.376558
0.711008 0.0295778 0.371667
0.71112 0.0328083 0.363395
0.736772 0.0355279 0.360676
0.720272 0.0392988 0.373596
0.722511 0.025879 0.360396
0.723451 0.0353684 0.367167
0.733868 0.0214584 0.376512
0.729431 0.0307286 0.364774
0.75364 0.0333067 0.368065
0.748156 0.0340653 0.376103
0.740849 0.0365857 0.379462
0.743438 0.0396328 0.360237
0.74083 0.0380744 0.363278
0.756602 0.0339616 0.3746
0.760899 0.0240157 0.367239
0.775884 0.0289927 0.373447
0.771141 0.0214285 0.37135
0.767875 0.0242346 0.379793
0.761036 0.0343245 0.372749
0.771908 0.0339696 0.362021
0.19636 0.0496927 0.36226
0.190829 0.0556594 0.365805
0.191304 0.0469251 0.364929
0.184732 0.0517803 0.360484
0.196714 0.0550295 0.366873
0.187338 0.0479619 0.371137
0.209459 0.0483435 0.37572
0.204207 0.0557128 0.371412
0.211093 0.0504572 0.364538
0.209091 0.0548786 0.360976
0.213059 0.0575283 0.372259
0.203175 0.0585468 0.37674
0.220991 0.05373 0.373394
0.236523 0.0556976 0.363566
0.229223 0.0478154 0.365335
0.230697 0.0548572 0.365654
0.22661 0.0512645 0.371578
0.22452 0.0446603 0.379582
0.243225 0.0593688 0.377337
0.248085 0.0450138 0.379561
0.257219 0.0558799 0.362741
0.242672 0.0502014 0.379063
0.242416 0.0517695 0.370242
0.243929 0.0587 0.367079
0.27976 0.0410563 0.360346
0.278952 0.0429473 0.364088
0.27257 0.054189 0.369603
0.271648 0.0429039 0.373138
0.269235 0.0468575 0.36629
0.279132 0.0450331 0.360316
0.292111 0.0409638 0.373174
0.285388 0.0528399 0.365136
0.292046 0.0581105 0.360431
0.292915 0.0494179 0.379111
0.297492 0.0458034 0.362818
0.281131 0.0431861 0.366238
0.317657 0.0575781 0.37296
0.312174 0.0430046 0.367153
0.319364 0.0571739 0.369455
0.308809 0.0522629 0.366251
0.314147 0.0559296 0.364714
0.319271 0.0478808 0.364762
0.335 0.0569546 0.364518
0.320707 0.0404896 0.362482
0.332722 0.0491804 0.370344
0.326969 0.0587364 0.363008
0.334237 0.0568369 0.360886
0.338773 0.0429991 0.37591
0.358517 0.0538808 0.37425
0.348951 0.0417306 0.361698
0.344152 0.0410871 0.372083
0.348929 0.05093 0.367931
0.343269 0.0590728 0.36788
0.351825 0.0556584 0.374544
0.370304 0.0564556 0.366143
0.375945 0.0551406 0.37093
0.371065 0.0417973 0.363254
0.365593 0.0455034 0.377314
0.361802 0.0468108 0.368514
0.379619 0.0516913 0.361055
0.383965 0.0412418 0.374906
0.38218 0.0419288 0.378416
0.396878 0.0446164 0.372047
0.385883 0.0471518 0.362624
0.392524 0.0423154 0.365314
0.386905 0.0502475 0.363251
0.411385 0.0513952 0.378017
0.41598 0.0463271 0.369728
0.419651 0.0549295 0.377902
0.408491 0.0594171 0.372168
0.41484 0.0445404 0.365212
0.411525 0.0471784 0.364427
0.433264 0.0408766 0.361632
0.427912 0.047759 0.365199
0.422444 0.0586877 0.378314
0.42694 0.05978 0.378123
0.432609 0.0423346 0.364535
0.436045 0.0409229 0.37893
0.449189 0.0494856 0.378948
0.45312 0.0532801 0.378849
0.455542 0.0494746 0.363788
0.454528 0.0433808 0.376477
0.441027 0.0562471 0.376771
0.456113 0.0491366 0.371877
0.4766 0.0492666 0.375772
0.477233 0.0454134 0.378152
0.468089 0.0529521 0.369756
0.462343 0.0468064 0.362983
0.468835 0.0575772 0.361292
0.46552 0.0440794 0.379453
0.48834 0.0553858 0.366135
0.489576 0.0436135 0.367218
0.485404 0.0582061 0.363203
0.492055 0.040247 0.367377
0.489502 0.0417544 0.37892
0.494927 0.0565948 0.368305
0.504883 0.0554872 0.364638
0.507393 0.0534005 0.373825
0.511026 0.0424226 0.371831
0.50306 0.0433515 0.36179
0.507161 0.0541773 0.372456
0.506259 0.0540826 0.375631
0.527578 0.0432106 0.371253
0.535296 0.0427919 0.361542
0.531709 0.0530061 0.37608
0.529018 0.0473011 0.361708
0.537824 0.0545294 0.37172
0.522613 0.0497888 0.373914
0.548283 0.0544819 0.375775
0.559581 0.0404882 0.37909
0.54652 0.0530189 0.371753
0.550913 0.0556897 0.378919
0.553398 0.0521905 0.368684
0.544115 0.0586981 0.373445
0.579579 0.0523684 0.371695
0.573986 0.0524057 0.375434
0.577893 0.0490403 0.374197
0.570462 0.0592533 0.370992
0.577497 0.0452463 0.371867
0.563851 0.0596883 0.372223
0.591027 0.0548804 0.361658
0.585255 0.0583579 0.378442
0.59073 0.055974 0.370339
0.589298 0.0440358 0.378307
0.588746 0.0424592 0.367977
0.591024 0.0513739 0.361403
0.613527 0.0531609 0.369252
0.617216 0.0428777 0.365477
0.614857 0.0454711 0.372142
0.604584 0.0552685 0.368441
0.610524 0.0423578 0.360214
0.617867 0.0441623 0.377357
0.623666 0.0480191 0.366262
0.623647 0.0533476 0.37408
0.6295 0.0563223 0.376405
0.621131 0.0589591 0.368854
0.633605 0.046814 0.366521
0.621776 0.0484256 0.372809
0.651003 0.0553215 0.373389
0.641197 0.0557622 0.362673
0.650321 0.0408209 0.365288
0.642279 0.0518864 0.373378
0.645768 0.0572964 0.363227
0.65435 0.0440755 0.376623
0.676274 0.0481278 0.374723
0.665675 0.0555548 0.364913
0.677335 0.0482309 0.376883
0.670734 0.0490494 0.364568
0.672637 0.0588113 0.370986
0.667634 0.0495471 0.369238
0.684771 0.0495335 0.379721
0.68609 0.0593377 0.360718
0.682695 0.0476972 0.367737
0.68414 0.0572355 0.378371
0.691213 0.0414886 0.362692
0.693644 0.0430458 0.367889
0.717784 0.0537649 0.366577
0.711091 0.0596746 0.365092
0.712059 0.0408749 0.379206
0.717776 0.0455501 0.373607
0.702021 0.0514738 0.37842
0.700684 0.0567048 0.369723
0.725866 0.0592536 0.36029
0.727906 0.0594198 0.360816
0.734892 0.0547696 0.368238
0.725084 0.0438714 0.368769
0.724616 0.0480797 0.365501
0.731749 0.0484094 0.36839
0.745803 0.0428797 0.369212
0.752872 0.0423545 0.368419
0.749114 0.0542146 0.362441
0.755872 0.0494495 0.361094
0.755681 0.0423398 0.378513
0.756895 0.0577965 0.377415
0.77469 0.0577172 0.37309
0.773296 0.0568565 0.369327
0.768584 0.0455822 0.370217
0.777272 0.0444071 0.363494
0.77518 0.0594834 0.364153
0.773277 0.0456177 0.366426
0.787025 0.0422924 0.371638
0.783463 0.0560743 0.361209
0.784245 0.0553062 0.366889
0.783343 0.0510366 0.360755
0.798979 0.0595694 0.37918
0.799791 0.0567038 0.373074
0.807259 0.0580253 0.372739
0.811342 0.0431914 0.373854
0.810548 0.0582603 0.36743
0.805478 0.0564533 0.361143
0.800573 0.0567266 0.370471
0.80693 0.0438575 0.369008
0.145394 0.0765401 0.362865
0.151678 0.0657804 0.373699
0.154839 0.0656735 0.366481
0.147965 0.0610933 0.364598
0.152936 0.0673384 0.369019
0.147962 0.0671832 0.362992
0.176701 0.076024 0.36499
0.163762 0.0657786 0.374157
0.178442 0.0602955 0.374951
0.179278 0.0628832 0.361952
0.172966 0.0634101 0.366406
0.16446 0.0719905 0.376464
0.184668 0.0631915 0.373323
0.196502 0.0745425 0.373373
0.182137 0.0619607 0.366309
0.193608 0.0767487 0.375529
0.182726 0.0729098 0.366928
0.18568 0.0682723 0.366067
0.202508 0.0737152 0.369648
0.218238 0.0602245 0.374777
0.200941 0.0733657 0.374837
0.203953 0.0766671 0.369774
0.218034 0.0688399 0.374068
0.217106 0.0639516 0.372555
0.227138 0.0685214 0.374229
0.226106 0.065969 0.362333
0.222143 0.0629495 0.371339
0.23405 0.0686135 0.362636
0.222983 0.0662623 0.368175
0.228031 0.0783081 0.370368
0.245401 0.0682869 0.373908
0.251633 0.0751544 0.377311
0.254769 0.0766956 0.369349
0.250502 0.0779238 0.371087
0.259451 0.0666204 0.37813
0.250703 0.0616084 0.367483
0.269609 0.0732246 0.364075
0.269223 0.067888 0.363759
0.276007 0.0736165 0.371054
0.263356 0.0646852 0.365749
0.266738 0.0738905 0.36791
0.278698 0.0709008 0.364155
0.286932 0.068131 0.360758
0.281698 0.0695562 0.374693
0.299666 0.0727197 0.378203
0.282837 0.0752088 0.373409
0.299791 0.0651716 0.361751
0.282243 0.0664656 0.375153
0.311948 0.0691499 0.378896
0.302986 0.0705614 0.362116
0.31471 0.0697053 0.361465
0.305805 0.0660838 0.363528
0.308082 0.0634252 0.367701
0.307856 0.0789104 0.362311
0.325089 0.0614231 0.375489
0.337699 0.0633502 0.378109
0.331586 0.0789089 0.367762
0.327046 0.0650882 0.370605
0.335414 0.0720621 0.362079
0.320341 0.0778664 0.375446
0.352916 0.0733463 0.378831
0.358957 0.0661824 0.365233
0.341037 0.0657007 0.370806
0.354066 0.067172 0.360298
0.349701 0.0742752 0.379046
0.358413 0.0706651 0.360576
0.377979 0.075529 0.362862
0.379158 0.06052 0.363395
0.366249 0.0707251 0.368823
0.360339 0.065151 0.363819
0.374469 0.0715303 0.365318
0.366764 0.069707 0.370349
0.386305 0.0666099 0.363969
0.390376 0.0723372 0.36546
0.393993 0.0652743 0.364543
0.393319 0.0785385 0.365638
0.393448 0.0622121 0.378209
0.399258 0.074044 0.37032
0.413759 0.079357 0.368631
0.415125 0.0711858 0.373241
0.417195 0.0666097 0.371543
0.413397 0.0711527 0.36866
0.414958 0.0729387 0.37559
0.401309 0.0665301 0.373948
0.424748 0.0695736 0.373973
0.425808 0.062381 0.362828
0.439662 0.0739197 0.3687
0.43172 0.064807 0.379416
0.433874 0.0652888 0.373406
0.428882 0.0689691 0.36468
0.458417 0.0656046 0.364617
0.456428 0.0625699 0.366267
0.449596 0.0621858 0.368273
0.45106 0.0658691 0.376109
0.442895 0.0719781 0.36294
0.459261 0.0715523 0.368349
0.476017 0.0671678 0.373264
0.476459 0.067936 0.370945
0.464453 0.0750952 0.367127
0.473677 0.0743279 0.361049
0.465059 0.0650473 0.378576
0.462387 0.0605261 0.367423
0.494472 0.0632271 0.374498
0.49569 0.0787278 0.375552
0.487502 0.076728 0.368018
0.481234 0.0708652 0.376406
0.497783 0.0614218 0.364866
0.489057 0.0697386 0.373911
0.513952 0.0629534 0.376041
0.503429 0.0797686 0.368473
0.512412 0.063834 0.37345
0.501754 0.0668493 0.377235
0.510927 0.0755236 0.37149
0.514644 0.0652423 0.368325
0.531903 0.0786176 0.372563
0.536575 0.0721272 0.362841
0.534886 0.0760958 0.360638
0.535964 0.0762665 0.371525
0.539329 0.0764264 0.376091
0.526574 0.0786955 0.368324
0.553139 0.075337 0.367482
0.547316 0.0633445 0.372711
0.557693 0.0733403 0.37505
0.553297 0.0649105 0.368497
0.544432 0.0685149 0.37857
0.550932 0.0640302 0.37307
0.571018 0.0757927 0.376006
0.577395 0.0608356 0.362333
0.569712 0.0671641 0.366401
0.567559 0.0723957 0.371271
0.562754 0.0603133 0.367288
0.56227 0.0662965 0.361139
0.59191 0.0744015 0.360398
0.581231 0.0671205 0.376801
0.589518 0.0654948 0.378538
0.580737 0.0623037 0.363731
0.582354 0.0636326 0.369663
0.58067 0.0632871 0.374495
0.617728 0.0651957 0.375987
0.607727 0.0709427 0.378599
0.616777 0.0674913 0.371269
0.614267 0.0652724 0.377062
0.606876 0.0603477 0.366222
0.617816 0.0621576 0.376048
0.629729 0.0676243 0.363245
0.630876 0.0691124 0.375437
0.624904 0.0685652 0.371209
0.626207 0.0746772 0.363842
0.622637 0.0603039 0.373624
0.631834 0.0629397 0.378556
0.642959 0.060564 0.37698
0.641921 0.0749591 0.366589
0.656008 0.0610652 0.364478
0.649434 0.0715064 0.371261
0.656 0.0773294 0.361743
0.646277 0.0680081 0.363879
0.677472 0.0752329 0.36201
0.661847 0.0712899 0.375567
0.668123 0.0643979 0.36609
0.666327 0.0757728 0.360474
0.666875 0.0774521 0.376299
0.662285 0.0646739 0.364098
0.694818 0.0785114 0.365959
0.690763 0.0654255 0.371977
0.685516 0.0782047 0.375972
0.682853 0.0787613 0.364259
0.69946 0.0740237 0.368962
0.697041 0.0609769 0.375661
0.710339 0.0729069 0.366889
0.700203 0.06575 0.368084
0.710763 0.0689715 0.363796
0.708973 0.0615327 0.373984
0.718961 0.0666221 0.378101
0.70752 0.0621251 0.36576
0.72243 0.0794273 0.375266
0.726707 0.0618522 0.366433
0.721794 0.0621774 0.375599
0.728352 0.0761843 0.376649
0.721539 0.0678125 0.376392
0.726688 0.0708286 0.374166
0.742319 0.0652474 0.367637
0.745812 0.0749405 0.378809
0.759156 0.0782914 0.373225
0.754046 0.0777061 0.377873
0.740679 0.0721976 0.361763
0.745286 0.0632451 0.361782
0.778098 0.0788217 0.36694
0.76636 0.0627712 0.373864
0.761389 0.0615307 0.370983
0.770641 0.0687133 0.375774
0.776715 0.0640902 0.36915
0.765988 0.0792624 0.372511
0.790985 0.0665494 0.373225
0.795769 0.0688273 0.366404
0.786655 0.0692497 0.360516
0.782494 0.071349 0.361192
0.785052 0.0712319 0.378944
0.782212 0.0724259 0.368225
0.815919 0.067931 0.375607
0.810516 0.0629493 0.373229
0.801836 0.0730773 0.361554
0.807325 0.0751282 0.367107
0.802318 0.0692946 0.375208
0.806103 0.0670826 0.375918
0.833654 0.067291 0.36195
0.833239 0.0705927 0.371233
0.820793 0.0752067 0.366138
0.822575 0.0717587 0.362753
0.835818 0.0669298 0.36539
0.828712 0.0664928 0.379026
0.851168 0.0617605 0.363228
0.849745 0.060624 0.361052
0.859188 0.0729952 0.365618
0.856297 0.0678497 0.378455
0.850833 0.0725994 0.368779
0.857932 0.0670014 0.373905
0.134128 0.0977145 0.379048
0.131431 0.0864036 0.379389
0.130569 0.0857972 0.370858
0.132055 0.0873919 0.37971
0.120802 0.0826996 0.363911
0.127009 0.0873115 0.36503
0.147045 0.0864634 0.370605
0.141029 0.0919637 0.362522
0.14527 0.0858569 0.365987
0.154574 0.0895182 0.372304
0.153984 0.0962541 0.36514
0.149243 0.0932619 0.36701
0.174547 0.0817249 0.37712
0.174286 0.093726 0.369151
0.16938 0.0935921 0.367628
0.177673 0.0927946 0.366566
0.176038 0.0809256 0.367125
0.172609 0.0883708 0.379485
0.19881 0.0892271 0.371062
0.196431 0.0849133 0.377186
0.183527 0.0965114 0.370749
0.186893 0.0973396 0.376398
0.198894 0.0987266 0.36574
0.187695 0.0945306 0.375064
0.200807 0.0867875 0.374661
0.211241 0.08159 0.367417
0.213968 0.093734 0.369354
0.206586 0.0884687 0.361813
0.208174 0.089797 0.373394
0.211796 0.0811378 0.36731
0.226611 0.0962392 0.361712
0.228631 0.0890175 0.37036
0.236154 0.0934265 0.364408
0.223821 0.0862903 0.362832
0.233983 0.0943248 0.373427
0.238246 0.0891072 0.372216
0.242341 0.0818181 0.37268
0.257852 0.0975199 0.362164
0.245709 0.0944587 0.364041
0.246207 0.0925909 0.3614
0.257945 0.0961994 0.378222
0.259688 0.0924992 0.377582
0.268511 0.0961144 0.360631
0.27975 0.0820135 0.377195
0.268867 0.0953787 0.375978
0.267107 0.0965522 0.379164
0.273101 0.0802537 0.378203
0.261504 0.0851263 0.372061
0.281696 0.0854462 0.368577
0.285181 0.0932916 0.365868
0.28138 0.0813611 0.367233
0.281803 0.0856599 0.376648
0.283944 0.0827711 0.372937
0.289673 0.094982 0.370708
0.318234 0.0974205 0.375265
0.315475 0.0867342 0.378056
0.313433 0.0886538 0.368854
0.304303 0.0874557 0.371005
0.300361 0.0968964 0.364904
0.307596 0.0866503 0.377433
0.339465 0.0911522 0.369052
0.324186 0.0884645 0.379234
0.330986 0.0836399 0.369035
0.336125 0.0896084 0.362108
0.330916 0.0875283 0.374751
0.337184 0.0827318 0.364035
0.35504 0.0947438 0.365431
0.356906 0.0932311 0.3783
0.346435 0.0967642 0.377174
0.35299 0.0825137 0.360411
0.342553 0.0917031 0.372512
0.341113 0.0915712 0.374434
0.374347 0.0903361 0.373035
0.365055 0.0981644 0.363573
0.377448 0.0819382 0.373701
0.364374 0.0834924 0.370347
0.361975 0.082972 0.369355
0.374127 0.080705 0.366438
0.381277 0.0983554 0.365725
0.381673 0.0834706 0.362867
0.384458 0.0938486 0.37814
0.390372 0.0982192 0.363186
0.395349 0.0937707 0.365406
0.390264 0.091697 0.377289
0.41753 0.0885523 0.364428
0.408876 0.0979427 0.366503
0.407777 0.0911931 0.361207
0.405926 0.0810658 0.374088
0.405185 0.0831027 0.368638
0.403225 0.0897033 0.37139
0.439329 0.0866064 0.372
0.437693 0.0987602 0.367976
0.432406 0.0904644 0.369063
0.433773 0.0877865 0.379733
0.42662 0.0930338 0.365529
0.43207 0.0877005 0.376964
0.441595 0.0869453 0.362888
0.440703 0.0837569 0.361966
0.441061 0.0868004 0.378336
0.453154 0.0982875 0.37252
0.453704 0.0864784 0.368242
0.44431 0.0805577 0.371222
0.462401 0.0907393 0.376735
0.468095 0.0975124 0.36633
0.468998 0.0927387 0.370274
0.469665 0.0874623 0.37094
0.47326 0.082327 0.36163
0.460437 0.0835442 0.372019
0.499714 0.0843705 0.363254
0.497268 0.0963254 0.374503
0.493758 0.0985711 0.376408
0.484819 0.0921487 0.373343
0.497829 0.0963474 0.366608
0.49772 0.0992295 0.371738
0.505176 0.0923931 0.371491
0.510807 0.0967737 0.372916
0.511295 0.0811448 0.36077
0.505492 0.0818093 0.365847
0.505633 0.0807803 0.369415
0.514269 0.0855367 0.37949
0.52676 0.0935264 0.372905
0.531566 0.0893102 0.37588
0.535512 0.0897706 0.366735
0.536039 0.0885045 0.376872
