ply
format ascii 1.0
element vertex 1758
property float x
property float y
property float z
end_header
0.187761 0.0881395 0.449491
0.180911 0.087714 0.458263
0.19739 0.0853793 0.448375
0.184788 0.090692 0.458021
0.187488 0.0891793 0.442211
0.216646 0.0890868 0.447288
0.202704 0.0980671 0.449342
0.205955 0.0832951 0.458576
0.206691 0.0947378 0.447526
0.202646 0.0890438 0.458184
0.207248 0.0944662 0.455406
0.22914 0.0948169 0.447431
0.237522 0.0928715 0.448524
0.23768 0.0914439 0.45259
0.227076 0.0853276 0.443533
0.233014 0.0949202 0.444914
0.226001 0.0802749 0.459755
0.251578 0.0853496 0.447425
0.246168 0.0934309 0.457681
0.254777 0.0842418 0.446845
0.245789 0.0937903 0.449415
0.255823 0.0882012 0.448217
0.251929 0.0806383 0.453776
0.262216 0.0976524 0.451679
0.264024 0.0965028 0.451263
0.266012 0.0992418 0.449362
0.266136 0.0964676 0.459782
0.274695 0.0913234 0.454983
0.276672 0.0967532 0.456228
0.292582 0.0829522 0.448155
0.296934 0.0875517 0.451845
0.296485 0.0942134 0.443938
0.286483 0.0920037 0.451005
0.283988 0.090219 0.452237
0.280892 0.0971944 0.446562
0.318862 0.0909467 0.44483
0.303759 0.0834942 0.448109
0.316983 0.0977321 0.442264
0.306733 0.0961002 0.445848
0.303326 0.097259 0.455635
0.301957 0.0933837 0.457304
0.329631 0.0932857 0.454498
0.327022 0.0836441 0.442633
0.32848 0.0803615 0.44075
0.321568 0.0937642 0.449793
0.332992 0.0992102 0.449443
0.335007 0.0851477 0.454259
0.344236 0.0804869 0.443166
0.357398 0.0948609 0.453389
0.340925 0.0816931 0.442471
0.347659 0.0828607 0.459004
0.349223 0.0921229 0.440692
0.354254 0.0991616 0.44621
0.362037 0.0890522 0.459186
0.36285 0.0826869 0.456778
0.372889 0.0929862 0.442291
0.367208 0.0961857 0.459074
0.363209 0.0802919 0.446592
0.374289 0.0826448 0.440643
0.387728 0.0907198 0.445209
0.389758 0.0891984 0.455388
0.396048 0.0969671 0.448352
0.382175 0.0941692 0.446285
0.392639 0.0921952 0.44107
0.392322 0.0936711 0.440438
0.410642 0.0910996 0.450651
0.416948 0.0927245 0.443273
0.403629 0.0985525 0.444936
0.40067 0.0944509 0.441535
0.407472 0.0827762 0.441292
0.409394 0.09162 0.440232
0.428237 0.0885744 0.456651
0.430414 0.0968659 0.443709
0.422659 0.099242 0.457875
0.429014 0.0846728 0.443126
0.431614 0.0960267 0.450358
0.423776 0.0968868 0.458713
0.458517 0.0851406 0.440931
0.454201 0.0986284 0.445001
0.456161 0.0827945 0.457957
0.45785 0.081151 0.448456
0.452366 0.0934605 0.445305
0.449316 0.0875828 0.449342
0.462712 0.0951086 0.449645
0.478347 0.0823006 0.45372
0.472943 0.0876048 0.450357
0.468259 0.0943352 0.445158
0.466228 0.0986558 0.451612
0.474617 0.0893995 0.446429
0.48512 0.0914711 0.443335
0.484364 0.0856042 0.456543
0.499501 0.0903397 0.442012
0.486209 0.0959483 0.443257
0.491657 0.0949933 0.446259
0.496693 0.0815093 0.459072
0.509789 0.0802712 0.459714
0.518256 0.0946906 0.454447
0.510211 0.0853274 0.458951
0.517037 0.0928468 0.442432
0.516294 0.0855432 0.444711
0.517397 0.0866212 0.447199
0.526177 0.0953568 0.451552
0.538505 0.0912285 0.442891
0.536092 0.0857204 0.445373
0.5384 0.0889091 0.458215
0.527955 0.08629 0.453124
0.531082 0.0840832 0.458107
0.542486 0.081287 0.442321
0.553883 0.0907374 0.447618
0.553036 0.0917982 0.458462
0.554631 0.0975545 0.457436
0.549795 0.0869329 0.448546
0.540735 0.0845027 0.440405
0.565025 0.0964984 0.441394
0.572707 0.0929062 0.454014
0.577012 0.0944231 0.442321
0.578269 0.0851018 0.443467
0.566617 0.0888231 0.444062
0.576995 0.0917338 0.442525
0.587989 0.0876121 0.457059
0.58811 0.0807528 0.456845
0.584287 0.0895779 0.453188
0.582294 0.0957909 0.453121
0.597332 0.0913822 0.458366
0.583161 0.0858877 0.455697
0.61617 0.0904097 0.450587
0.612706 0.0897985 0.440206
0.614185 0.0854756 0.449538
0.617703 0.0845307 0.452964
0.610902 0.0925788 0.447961
0.618292 0.0825196 0.455768
0.636602 0.0824758 0.452942
0.63522 0.0849424 0.442915
0.637159 0.0818182 0.449135
0.630626 0.0938484 0.446746
0.639366 0.0961925 0.446679
0.632586 0.0871902 0.456097
0.645238 0.0991048 0.447033
0.654325 0.081287 0.450519
0.656045 0.0939377 0.440607
0.643362 0.0860878 0.444857
0.652737 0.0837055 0.450222
0.641983 0.0920926 0.455377
0.664607 0.0896055 0.448629
0.677925 0.0945964 0.452869
0.669473 0.0982029 0.457826
0.665967 0.0839041 0.444123
0.678392 0.0894868 0.450873
0.660314 0.0957164 0.445424
0.693745 0.0955828 0.44712
0.695462 0.0854025 0.442929
0.687963 0.0806612 0.456821
0.691306 0.0921332 0.458831
0.698472 0.0826028 0.441235
0.683322 0.0888911 0.441341
0.70738 0.0890407 0.441526
0.709273 0.0856727 0.447436
0.702065 0.0858575 0.445615
0.703312 0.0837862 0.457389
0.708478 0.0864799 0.458758
0.709408 0.0956737 0.458665
0.736502 0.0993703 0.450923
0.734181 0.0938791 0.443341
0.735139 0.0978346 0.451371
0.738755 0.0867983 0.441132
0.735766 0.0864531 0.441246
0.722495 0.0808338 0.45487
0.752961 0.0930453 0.459042
0.745017 0.0990025 0.445469
0.743251 0.0949277 0.458113
0.758737 0.0846535 0.444044
0.747502 0.0822986 0.444597
0.744961 0.0863965 0.447917
0.775459 0.0976881 0.459485
0.779479 0.0807326 0.446203
0.766481 0.0941609 0.446513
0.769297 0.087255 0.4508
0.775024 0.0845581 0.451725
0.77818 0.0886766 0.445834
0.781805 0.0831936 0.452663
0.792018 0.0977079 0.446224
0.794621 0.0991316 0.452606
0.792429 0.0821059 0.45744
0.789777 0.081668 0.45247
0.78725 0.0909616 0.442365
0.804395 0.0963404 0.445782
0.814942 0.0905989 0.454554
0.806542 0.0909207 0.453356
0.804862 0.0918099 0.452724
0.806111 0.0839749 0.440218
0.803658 0.0997075 0.458691
0.820327 0.0934035 0.445881
0.82847 0.0997293 0.45511
0.839255 0.0850224 0.456327
0.822665 0.0888159 0.442947
0.830569 0.0860974 0.454342
0.830267 0.094737 0.447568
0.850258 0.099356 0.444589
0.840609 0.0913395 0.44143
0.85881 0.0952781 0.448026
0.855827 0.088282 0.454791
0.850825 0.0880825 0.440402
0.848088 0.0934275 0.456188
0.864361 0.0968257 0.44541
0.861317 0.08684 0.451889
0.878583 0.099545 0.446641
0.865364 0.0833478 0.441095
0.870347 0.0960191 0.441582
0.861984 0.0813707 0.455616
0.11598 0.11564 0.454274
0.101006 0.114652 0.452844
0.106704 0.118524 0.445848
0.118513 0.112501 0.454482
0.11287 0.107437 0.455692
0.111356 0.115202 0.452307
0.125281 0.105851 0.445612
0.134088 0.115191 0.459527
0.123391 0.119576 0.440914
0.124032 0.113584 0.453301
0.126787 0.105808 0.440728
0.124313 0.100305 0.444353
0.152467 0.113712 0.457259
0.144598 0.107839 0.453863
0.157959 0.103662 0.443179
0.155617 0.118393 0.44073
0.15789 0.116967 0.455896
0.148194 0.111666 0.448881
0.178412 0.105001 0.453748
0.177932 0.112191 0.449447
0.179369 0.107389 0.457156
0.168575 0.109696 0.457983
0.160761 0.113932 0.450988
0.177227 0.109104 0.442187
0.187329 0.111757 0.459112
0.194519 0.104452 0.454012
0.183556 0.102261 0.448131
0.194388 0.11403 0.440577
0.194553 0.112578 0.458209
0.190227 0.118088 0.452211
0.212481 0.113459 0.453462
0.215575 0.109111 0.451397
0.206361 0.102355 0.455094
0.203619 0.101139 0.443468
0.207981 0.106474 0.455507
0.214809 0.116542 0.448453
0.233346 0.100388 0.443577
0.220433 0.117329 0.443567
0.225778 0.110595 0.445535
0.220684 0.107742 0.455587
0.228853 0.104827 0.443587
0.220747 0.102582 0.44092
0.258274 0.103262 0.45964
0.243983 0.119289 0.440219
0.243035 0.105071 0.452603
0.241944 0.112397 0.448852
0.241774 0.101357 0.45722
0.257686 0.114871 0.452327
0.269287 0.118444 0.446338
0.273971 0.102891 0.451045
0.272235 0.109173 0.45266
0.260412 0.10914 0.440333
0.275144 0.119001 0.458586
0.274946 0.119785 0.449633
0.290848 0.118827 0.441144
0.292645 0.119581 0.455756
0.288829 0.101738 0.443558
0.293706 0.113696 0.44288
0.281513 0.109377 0.447703
0.292742 0.116964 0.448597
0.304992 0.117564 0.454032
0.301452 0.114906 0.458364
0.318199 0.104898 0.448646
0.316467 0.117488 0.450264
0.302849 0.11476 0.441116
0.318586 0.11064 0.440645
0.323094 0.104327 0.443989
0.335337 0.114988 0.453777
0.321899 0.108995 0.440315
0.328025 0.113283 0.441116
0.337146 0.114738 0.445293
0.327823 0.105957 0.449465
0.340987 0.104357 0.454903
0.350798 0.110393 0.453816
0.35743 0.106921 0.453118
0.352072 0.108486 0.445097
0.344353 0.119368 0.446373
0.346814 0.109092 0.453684
0.365164 0.102117 0.459316
0.369141 0.112142 0.447494
0.376604 0.117615 0.458914
0.372727 0.112784 0.442822
0.373992 0.118246 0.452428
0.378287 0.115009 0.450512
0.381843 0.11825 0.447217
0.39326 0.112783 0.456578
0.385991 0.111118 0.441237
0.381574 0.103315 0.443731
0.385735 0.115862 0.442437
0.382242 0.110429 0.454505
0.407794 0.113125 0.445557
0.418793 0.119765 0.441396
0.418893 0.106997 0.449665
0.411562 0.103634 0.454852
0.408339 0.108572 0.452834
0.40421 0.110761 0.452588
0.433323 0.112639 0.453788
0.433468 0.104632 0.445684
0.423327 0.117043 0.457376
0.42732 0.111208 0.445732
0.431457 0.101285 0.442772
0.435625 0.112617 0.452745
0.451688 0.119656 0.442539
0.453134 0.111655 0.458469
0.45736 0.10699 0.455803
0.454623 0.112987 0.44646
0.447492 0.105077 0.443187
0.450237 0.104423 0.44978
0.476936 0.106915 0.450953
0.479499 0.106891 0.459501
0.461556 0.11111 0.452026
0.476505 0.107716 0.45489
0.468121 0.100436 0.447949
0.463531 0.114367 0.440796
0.487609 0.113765 0.447885
0.481076 0.118037 0.451631
0.498603 0.113303 0.459751
0.495839 0.102909 0.457004
0.486271 0.110741 0.456316
0.493693 0.11939 0.45132
0.500469 0.116702 0.442334
0.504711 0.110888 0.45471
0.501051 0.108632 0.454274
0.501767 0.106682 0.456998
0.503501 0.100668 0.444697
0.513486 0.112289 0.446713
0.52956 0.117449 0.453469
0.53087 0.117878 0.445629
0.526471 0.1073 0.4411
0.535381 0.108604 0.444581
0.528251 0.108508 0.444906
0.531963 0.111812 0.454466
0.552003 0.108839 0.451234
0.554339 0.108872 0.445264
0.553625 0.108304 0.453417
0.544277 0.115472 0.447686
0.558124 0.119246 0.441841
0.551962 0.108887 0.449274
0.578255 0.113441 0.453898
0.566746 0.116051 0.453842
0.577484 0.10082 0.454585
0.575234 0.114371 0.451387
0.562646 0.119663 0.456307
0.577439 0.112293 0.445889
0.590571 0.107914 0.443463
0.586365 0.105003 0.443764
0.585718 0.10701 0.448988
0.583024 0.111607 0.458919
0.585145 0.110803 0.450564
0.591214 0.117556 0.451508
0.615519 0.11146 0.441242
0.603921 0.10879 0.448331
0.614322 0.11248 0.440225
0.613077 0.113184 0.459397
0.614415 0.10835 0.441003
0.611791 0.105357 0.45722
0.630859 0.108545 0.4488
0.630456 0.110503 0.449451
0.633019 0.104754 0.445731
0.628743 0.101919 0.448002
0.629392 0.100733 0.452461
0.623154 0.102484 0.457757
0.656968 0.118884 0.44484
0.641711 0.112828 0.447616
0.651323 0.115629 0.458833
0.649481 0.11227 0.442469
0.641785 0.103092 0.455987
0.657653 0.118237 0.451779
0.672602 0.111567 0.446196
0.678344 0.103709 0.448462
0.667272 0.101933 0.451047
0.67976 0.10567 0.449581
0.672581 0.119751 0.459708
0.670487 0.112135 0.448645
0.697785 0.100377 0.441784
0.694579 0.112973 0.454896
0.697919 0.105578 0.457594
0.681408 0.112519 0.441758
0.689026 0.11585 0.449065
0.682175 0.101661 0.455709
0.718855 0.114873 0.448999
0.713797 0.106792 0.459308
0.706736 0.1072 0.443564
0.715087 0.105945 0.441099
0.700328 0.105017 0.442312
0.704018 0.101863 0.440429
0.731677 0.113407 0.443005
0.73594 0.119651 0.457722
0.732809 0.11075 0.458868
0.733146 0.107623 0.452273
0.73923 0.108298 0.454276
0.73887 0.110407 0.441982
0.744482 0.111523 0.45277
0.749288 0.106591 0.457859
0.754749 0.10171 0.444914
0.743657 0.116484 0.442868
0.758168 0.106997 0.441098
0.740909 0.115153 0.44793
0.778205 0.116788 0.455237
0.779249 0.118579 0.453112
0.775967 0.10972 0.457998
0.765897 0.108826 0.449745
0.76315 0.10295 0.449098
0.776713 0.112173 0.44055
0.782078 0.115554 0.445283
0.781434 0.10538 0.459157
0.788286 0.107778 0.448164
0.798743 0.113692 0.448555
0.78218 0.118057 0.453622
0.784489 0.117068 0.452785
0.808098 0.115477 0.443099
0.817932 0.114657 0.455235
0.808912 0.118628 0.445945
0.80451 0.1085 0.457793
0.811113 0.106757 0.452472
0.803942 0.100347 0.456616
0.831102 0.115428 0.449335
0.838056 0.104655 0.441825
0.830737 0.111768 0.44786
0.820467 0.114095 0.459184
0.833504 0.111341 0.443545
0.83291 0.117105 0.458202
0.849343 0.116482 0.446093
0.852132 0.11647 0.446765
0.852146 0.106182 0.456346
0.85818 0.109323 0.445274
0.846026 0.104521 0.447773
0.850806 0.102966 0.457639
0.868694 0.108581 0.441731
0.873846 0.111665 0.457316
0.86088 0.102572 0.454778
0.868792 0.110908 0.45353
0.873625 0.116166 0.451607
0.867134 0.116633 0.458449
0.890883 0.10927 0.445669
0.884853 0.101471 0.456843
0.890343 0.11544 0.454985
0.886337 0.106433 0.451056
0.880639 0.117389 0.449105
0.896576 0.11782 0.45509
0.0866337 0.123796 0.446686
0.0926772 0.128541 0.45315
0.0851707 0.138018 0.454932
0.0877656 0.132553 0.440606
0.0887236 0.125007 0.440715
0.0894302 0.134263 0.456268
0.118935 0.131972 0.450218
0.117437 0.122374 0.452033
0.112672 0.122028 0.457054
0.103178 0.135595 0.455519
0.102179 0.127163 0.45347
0.104474 0.134293 0.457471
0.136014 0.12171 0.456497
0.138675 0.130608 0.444467
0.129244 0.128086 0.444474
0.127047 0.135945 0.442775
0.138533 0.128981 0.453351
0.138094 0.126778 0.454181
0.158931 0.128365 0.452396
0.154005 0.133175 0.449588
0.146668 0.131034 0.449442
0.145627 0.12553 0.441848
0.14245 0.135595 0.458896
0.14183 0.121667 0.447221
0.179796 0.128012 0.458875
0.160439 0.124967 0.44219
0.167769 0.126395 0.445512
0.178917 0.121426 0.445268
0.175766 0.120281 0.448422
0.160829 0.126555 0.445587
0.194686 0.138829 0.444797
0.1892 0.13025 0.451841
0.195405 0.137714 0.446847
0.197167 0.131523 0.459364
0.189756 0.123214 0.450535
0.197806 0.123617 0.445966
0.21437 0.120266 0.446255
0.204435 0.134155 0.446192
0.206925 0.123723 0.456482
0.212784 0.133593 0.458814
0.205027 0.127302 0.458278
0.216619 0.135566 0.441313
0.230347 0.134014 0.452424
0.229348 0.125201 0.443632
0.226685 0.12819 0.458044
0.230568 0.124682 0.456917
0.227679 0.125421 0.441916
0.22661 0.131801 0.452919
0.248393 0.130494 0.442158
0.254163 0.123973 0.457297
0.253066 0.13341 0.451504
0.25169 0.120311 0.447455
0.253621 0.123602 0.453033
0.246 0.139726 0.447669
0.265556 0.13736 0.4593
0.273895 0.136431 0.455732
0.27784 0.138742 0.458756
0.276561 0.13405 0.441858
0.266232 0.138459 0.455943
0.268954 0.12946 0.444841
0.296307 0.128519 0.442708
0.299003 0.125754 0.451443
0.298526 0.131165 0.443453
0.2807 0.137402 0.447287
0.282545 0.130927 0.44039
0.293072 0.135868 0.446772
0.309688 0.120674 0.457299
0.311369 0.137595 0.454015
0.312501 0.132948 0.453471
0.302506 0.139553 0.454978
0.305254 0.127969 0.455917
0.307651 0.133752 0.456151
0.337518 0.136189 0.445523
0.332584 0.136147 0.440403
0.339587 0.123926 0.452758
0.33923 0.12571 0.455255
0.324248 0.127152 0.441996
0.33827 0.128106 0.446505
0.357094 0.132511 0.455961
0.356307 0.128534 0.442801
0.348103 0.132049 0.44977
0.342476 0.13923 0.448499
0.356949 0.126936 0.44435
0.345374 0.134019 0.456156
0.361158 0.133385 0.442515
0.361863 0.132866 0.447837
0.364749 0.139225 0.446557
0.379339 0.130972 0.45721
0.362491 0.12604 0.44379
0.363993 0.126037 0.448886
0.399783 0.132279 0.443309
0.384639 0.121934 0.455351
0.391191 0.12655 0.455694
0.389496 0.12198 0.441516
0.390428 0.132783 0.459196
0.397239 0.127153 0.441423
0.412016 0.122676 0.459194
0.405556 0.127549 0.458157
0.418909 0.120455 0.455607
0.406326 0.122779 0.455596
0.416377 0.132606 0.452794
0.418927 0.131036 0.446511
0.438684 0.136059 0.451245
0.424799 0.125612 0.452997
0.4331 0.126958 0.455422
0.434272 0.121778 0.458173
0.432624 0.135083 0.446488
0.439283 0.138474 0.445651
0.440812 0.138421 0.456245
0.452176 0.126143 0.44098
0.448586 0.136463 0.444194
0.447468 0.129615 0.451366
0.441653 0.13298 0.446487
0.458015 0.135033 0.442534
0.463534 0.121221 0.448342
0.477755 0.128728 0.453322
0.474958 0.135037 0.459711
0.478704 0.138616 0.447235
0.463521 0.122822 0.442488
0.469327 0.122886 0.454919
0.493873 0.129491 0.452364
0.484201 0.129081 0.448652
0.48228 0.139559 0.457759
0.493645 0.132854 0.449322
0.493877 0.130805 0.446698
0.482768 0.120474 0.459522
0.514497 0.139217 0.452505
0.513242 0.13236 0.454049
0.504741 0.134308 0.445801
0.5197 0.120408 0.458713
0.502768 0.130741 0.443187
0.509682 0.136989 0.448797
0.524115 0.137654 0.44052
0.530873 0.12088 0.446886
0.528209 0.135195 0.450939
0.534751 0.128616 0.450254
0.527253 0.131066 0.444713
0.533766 0.120716 0.450608
0.540702 0.133281 0.458101
0.5429 0.128019 0.442871
0.543572 0.128864 0.455383
0.559789 0.132433 0.440242
0.548054 0.136794 0.448626
0.552882 0.121103 0.44438
0.577215 0.120627 0.45842
0.576596 0.126521 0.444252
0.570831 0.130782 0.44715
0.56794 0.133549 0.446903
0.576298 0.120282 0.455744
0.579263 0.135095 0.45592
0.581568 0.136713 0.457056
0.582179 0.121564 0.456125
0.583897 0.121692 0.453144
0.593257 0.139004 0.453311
0.599356 0.124873 0.44321
0.580434 0.129383 0.452189
0.602053 0.135523 0.447332
0.602088 0.124258 0.445155
0.617948 0.124076 0.452036
0.601703 0.123162 0.445594
0.605368 0.122668 0.459734
0.617663 0.137401 0.450504
0.639118 0.133575 0.440806
0.629672 0.121294 0.441377
0.631107 0.125697 0.442567
0.627791 0.138594 0.451153
0.634927 0.124965 0.45921
0.627484 0.132727 0.44936
0.652823 0.130427 0.447312
0.641251 0.124386 0.447793
0.646733 0.13114 0.452321
0.65714 0.126513 0.456693
0.657475 0.123176 0.443568
0.658755 0.133452 0.441699
0.674484 0.138586 0.447189
0.66951 0.126041 0.44352
0.673164 0.134506 0.448334
0.671381 0.122053 0.44273
0.666076 0.136806 0.451402
0.678555 0.126656 0.452497
0.699171 0.132275 0.444246
0.68425 0.128937 0.446933
0.683521 0.131086 0.445645
0.685948 0.135271 0.445166
0.693379 0.128438 0.443936
0.697933 0.125075 0.454743
0.718639 0.125382 0.451168
0.711993 0.127279 0.454736
0.708603 0.136494 0.448427
0.706858 0.137263 0.441376
0.704116 0.137815 0.458222
0.717128 0.125913 0.459362
0.734292 0.131939 0.458447
0.72543 0.123381 0.444242
0.725736 0.139146 0.442206
0.730781 0.139096 0.443603
0.727981 0.123749 0.445148
0.723214 0.127645 0.445754
0.740969 0.128066 0.440793
0.756675 0.136255 0.455588
0.758419 0.139785 0.452764
0.750491 0.134022 0.441035
0.75864 0.127046 0.450482
0.756345 0.125651 0.452196
0.770898 0.128808 0.447195
0.7621 0.120561 0.447487
0.772738 0.121353 0.451638
0.77723 0.127624 0.452551
0.765731 0.139252 0.456372
0.776993 0.129658 0.441807
0.785433 0.122245 0.442737
0.782292 0.12182 0.441678
0.781452 0.133956 0.453021
0.785666 0.12959 0.443364
0.786975 0.138378 0.44846
0.790614 0.127992 0.442723
0.818099 0.134119 0.457897
0.813975 0.130807 0.458525
0.80139 0.124548 0.444953
0.81919 0.135003 0.447834
0.806207 0.13763 0.450848
0.813221 0.135772 0.450317
0.821548 0.132847 0.453906
0.830299 0.123622 0.448495
0.82593 0.133798 0.451788
0.82281 0.13145 0.45184
0.826371 0.128521 0.450874
0.838393 0.127599 0.457299
0.852533 0.125438 0.441788
0.851729 0.128407 0.440505
0.848302 0.121639 0.443349
0.840964 0.128521 0.45225
0.85953 0.129397 0.443765
0.849595 0.133006 0.449319
0.860444 0.138844 0.457841
0.874641 0.129792 0.456902
0.871325 0.138336 0.445266
0.862565 0.132682 0.445248
0.863955 0.129462 0.456092
0.872978 0.121021 0.453702
0.897469 0.137768 0.45504
0.89393 0.129442 0.458173
0.894181 0.122316 0.453745
0.887823 0.130962 0.458443
0.883095 0.137536 0.450422
0.89311 0.129502 0.453532
0.905905 0.130721 0.446822
0.91056 0.127552 0.456806
0.917479 0.127689 0.451833
0.911469 0.13514 0.453433
0.91783 0.133092 0.440574
0.91948 0.130822 0.445762
0.0955768 0.153204 0.453545
0.0948486 0.143498 0.459477
0.0927862 0.156933 0.455584
0.0946148 0.145516 0.455461
0.0806204 0.147584 0.458706
0.0870013 0.155681 0.440701
0.119368 0.153913 0.453953
0.105802 0.148839 0.448307
0.107877 0.15355 0.451728
0.101308 0.15214 0.45937
0.102872 0.153713 0.455759
0.108968 0.154282 0.45734
0.139075 0.144436 0.442654
0.135009 0.144375 0.458827
0.133286 0.147358 0.450603
0.128229 0.150394 0.446136
0.123389 0.144298 0.452567
0.138215 0.153846 0.45931
0.157495 0.15726 0.457512
0.141218 0.15254 0.443952
0.151681 0.157197 0.452927
0.154751 0.154426 0.441235
0.159763 0.154997 0.459792
0.15416 0.142194 0.440652
0.17604 0.146291 0.457665
0.16691 0.144972 0.453414
0.165763 0.153712 0.455082
0.174382 0.152714 0.447977
0.179763 0.150953 0.453489
0.161454 0.142128 0.444601
0.189227 0.144228 0.448488
0.18065 0.155634 0.440479
0.188753 0.153856 0.446939
0.18335 0.157264 0.447743
0.183165 0.143004 0.447262
0.190352 0.145022 0.444574
0.212776 0.151774 0.440602
0.21839 0.157554 0.446204
0.217192 0.140791 0.444238
0.204999 0.141045 0.444402
0.216124 0.140546 0.456414
0.209796 0.148959 0.450923
0.232726 0.145732 0.447957
0.228636 0.142454 0.444417
0.239571 0.144235 0.442393
0.238374 0.147185 0.452906
0.238966 0.146405 0.448077
0.226699 0.147467 0.455455
0.24743 0.149606 0.445505
0.254746 0.141333 0.458137
0.247764 0.154284 0.449711
0.256067 0.156398 0.44227
0.257507 0.152138 0.444516
0.258753 0.148246 0.451088
0.260368 0.152679 0.443892
0.279725 0.157606 0.45788
0.261096 0.157424 0.450797
0.262613 0.149459 0.453854
0.27515 0.14657 0.459353
0.264138 0.153798 0.459115
0.288511 0.158186 0.451111
0.288662 0.159591 0.449288
0.286272 0.144527 0.444002
0.290303 0.156612 0.451276
0.290443 0.146894 0.446189
0.283619 0.143163 0.448489
0.30882 0.152484 0.457367
0.312143 0.143326 0.454719
0.301408 0.148058 0.442602
0.308968 0.15189 0.449049
0.309224 0.151001 0.448406
0.306051 0.144548 0.457772
0.328615 0.1414 0.442413
0.337362 0.1416 0.454403
0.326355 0.14806 0.451787
0.323965 0.15496 0.440344
0.324787 0.152165 0.442844
0.332756 0.151207 0.442346
0.343279 0.15319 0.441678
0.350699 0.147156 0.456855
0.355949 0.154549 0.457906
0.357265 0.142381 0.454194
0.341084 0.141568 0.458845
0.359726 0.150813 0.44429
0.37225 0.159399 0.447221
0.371452 0.15228 0.442141
0.364313 0.152754 0.459005
0.367533 0.152856 0.450403
0.362099 0.143585 0.45231
0.371284 0.158066 0.445011
0.3811 0.150932 0.451001
0.384949 0.159132 0.45918
0.387256 0.143855 0.445633
0.382738 0.155225 0.458833
0.392272 0.141444 0.451689
0.382106 0.14915 0.4456
0.41619 0.145165 0.447042
0.418033 0.147384 0.444495
0.401166 0.141351 0.453587
0.404972 0.15043 0.452597
0.403762 0.152141 0.454823
0.418296 0.1452 0.440918
0.421605 0.155083 0.440229
0.42043 0.143787 0.444687
0.423367 0.147407 0.443286
0.429611 0.145655 0.451429
0.422464 0.158079 0.443463
0.429573 0.158896 0.458443
0.45913 0.144658 0.457663
0.445114 0.14587 0.443216
0.457026 0.151152 0.446518
0.457289 0.157219 0.453529
0.456218 0.157251 0.452797
0.444367 0.148582 0.451564
0.475731 0.147569 0.452001
0.476282 0.157857 0.444232
0.464829 0.148794 0.454088
0.469388 0.159128 0.456275
0.465886 0.140595 0.443243
0.479112 0.144033 0.444827
0.483524 0.146258 0.448216
0.498807 0.143715 0.455858
0.493684 0.154854 0.441138
0.485346 0.154507 0.448688
0.493617 0.152645 0.45508
0.489395 0.144791 0.452732
0.509788 0.158726 0.44108
0.51672 0.140604 0.453294
0.513374 0.148842 0.440823
0.518319 0.158123 0.451832
0.505924 0.140631 0.444509
0.512233 0.144798 0.450551
0.539253 0.152342 0.454784
0.530392 0.158635 0.443327
0.535399 0.151395 0.452425
0.521395 0.15764 0.458978
0.526078 0.146111 0.4404
0.530422 0.145171 0.458775
0.559779 0.148145 0.45064
0.550516 0.159117 0.454393
0.550942 0.155665 0.458293
0.5446 0.144656 0.440816
0.554851 0.153197 0.446096
0.559534 0.153065 0.451502
0.563168 0.154127 0.459546
0.573383 0.155573 0.447113
0.573434 0.157095 0.458736
0.579271 0.15522 0.448676
0.573658 0.140835 0.450642
0.574368 0.146881 0.446626
0.585256 0.141566 0.44588
0.58908 0.141107 0.452517
0.598114 0.153973 0.445516
0.590522 0.158031 0.447729
0.585356 0.153562 0.442107
0.589251 0.148545 0.445618
0.608651 0.149789 0.458162
0.614777 0.159095 0.443083
0.613912 0.150908 0.455173
0.610867 0.154625 0.453143
0.601763 0.159433 0.442834
0.617754 0.159453 0.455885
0.637993 0.148663 0.444525
0.637022 0.147232 0.450283
0.631813 0.148321 0.44184
0.627491 0.142351 0.449409
0.635027 0.152309 0.453618
0.6226 0.148774 0.451875
0.643484 0.144669 0.451649
0.644903 0.157406 0.442084
0.648322 0.143188 0.454058
0.643718 0.148425 0.449386
0.645496 0.157657 0.453508
0.65227 0.147303 0.456124
0.661 0.157227 0.451047
0.676638 0.154138 0.44638
0.667758 0.149578 0.447309
0.673318 0.146186 0.459454
0.666386 0.158042 0.445721
0.665844 0.155058 0.448896
0.690874 0.155608 0.448978
0.685665 0.152345 0.452846
0.690916 0.146243 0.451325
0.695766 0.149741 0.441446
0.698579 0.159606 0.44123
0.681955 0.153831 0.45896
0.707748 0.150878 0.455657
0.710552 0.147932 0.445911
0.716827 0.147829 0.447492
0.710791 0.140476 0.440681
0.710851 0.151439 0.451055
0.703482 0.142369 0.449706
0.724145 0.152522 0.441194
0.726489 0.143397 0.440955
0.735659 0.151283 0.444691
0.735651 0.145103 0.458128
0.739669 0.155191 0.445497
0.731262 0.150647 0.452604
0.759413 0.147 0.457658
0.743624 0.151378 0.457625
0.75563 0.144176 0.448322
0.752429 0.141015 0.44837
0.748767 0.157834 0.458527
0.74758 0.15123 0.444502
0.777173 0.155934 0.445829
0.769643 0.151258 0.442237
0.765834 0.144717 0.455157
0.774616 0.15896 0.441697
0.777511 0.148422 0.44804
0.765883 0.159125 0.451204
0.788716 0.154326 0.444689
0.793397 0.145959 0.448867
0.785318 0.147518 0.453061
0.782947 0.145883 0.448687
0.797893 0.148309 0.45391
0.783744 0.140275 0.448701
0.804931 0.140427 0.44123
0.815628 0.156396 0.457049
0.804351 0.144098 0.440872
0.806309 0.147631 0.442621
0.809097 0.143453 0.450794
0.817337 0.151849 0.449251
0.821587 0.150695 0.453461
0.834521 0.144487 0.459227
0.824348 0.149332 0.459038
0.83248 0.141056 0.453679
0.832975 0.143207 0.45721
0.838141 0.153399 0.445162
0.845947 0.152718 0.445623
0.847858 0.157066 0.451702
0.855277 0.145181 0.456947
0.847181 0.157859 0.458559
0.859456 0.141192 0.441648
0.843543 0.141147 0.457897
0.878558 0.157668 0.452967
0.864913 0.152477 0.442558
0.871143 0.159357 0.456247
0.869448 0.141401 0.448711
0.86293 0.15714 0.44684
0.872336 0.159436 0.444479
0.889464 0.14655 0.457738
0.89677 0.148682 0.440622
0.897074 0.150597 0.453272
0.890799 0.149276 0.455693
0.882655 0.157402 0.446929
0.889717 0.147046 0.447711
0.905495 0.157153 0.447833
0.906141 0.152169 0.452246
0.917336 0.147903 0.455212
0.905809 0.154359 0.450624
0.915759 0.151582 0.452026
0.901823 0.155998 0.456978
0.237555 0.022144 0.462517
0.225962 0.0321185 0.463196
0.222257 0.0258619 0.460266
0.220493 0.0282492 0.466592
0.231254 0.0322113 0.47109
0.220374 0.0329857 0.46952
0.249411 0.0337632 0.478287
0.244148 0.034316 0.477465
0.247274 0.0318936 0.463977
0.253219 0.0207051 0.470829
0.244788 0.0269387 0.479379
0.242285 0.0313339 0.47834
0.271397 0.0303955 0.462693
0.260698 0.0320485 0.462685
0.265566 0.0213745 0.475283
0.27921 0.0334537 0.475471
0.270361 0.0220582 0.469123
0.266398 0.0340373 0.46565
0.297463 0.0347311 0.462645
0.290261 0.0356769 0.47751
0.297121 0.0220534 0.462752
0.287052 0.0353491 0.474614
0.288605 0.0244939 0.475469
0.287357 0.0232559 0.47197
0.310388 0.0288691 0.46152
0.311442 0.0310325 0.473649
0.305797 0.0370058 0.468532
0.302828 0.0326863 0.479024
0.311285 0.0234578 0.471761
0.300342 0.030421 0.466174
0.324181 0.0375388 0.473656
0.331053 0.0340481 0.476507
0.334127 0.0281045 0.467429
0.337172 0.0391255 0.462748
0.333758 0.02724 0.463419
0.338063 0.0346801 0.475726
0.340612 0.0321765 0.473944
0.349526 0.0309467 0.467684
0.341121 0.0237488 0.473242
0.358966 0.0281973 0.475883
0.342375 0.0394007 0.463928
0.353432 0.0390686 0.475004
0.360255 0.0345221 0.473487
0.362126 0.0263537 0.472053
0.378901 0.029555 0.468053
0.36546 0.0373726 0.474906
0.368727 0.0228518 0.467179
0.373116 0.0283279 0.463837
0.388056 0.0217005 0.467045
0.386514 0.0333954 0.470268
0.39777 0.0259176 0.468616
0.387505 0.021203 0.469353
0.389141 0.0384046 0.47339
0.384473 0.0361665 0.471483
0.415278 0.0220495 0.466535
0.415673 0.038475 0.472198
0.404067 0.0314807 0.46283
0.416959 0.0394163 0.475235
0.400629 0.0251081 0.46264
0.411444 0.0210264 0.463333
0.420582 0.0285 0.477057
0.428815 0.038677 0.474491
0.423011 0.0325627 0.466387
0.434832 0.0235435 0.471293
0.434117 0.0374687 0.467261
0.431493 0.0239518 0.468722
0.441322 0.0333675 0.465617
0.454639 0.0391988 0.473352
0.442464 0.0280934 0.468349
0.453878 0.0256642 0.462724
0.445422 0.0258167 0.466654
0.444145 0.0314897 0.474889
0.474791 0.0231692 0.465232
0.466607 0.0393245 0.460896
0.4716 0.0268102 0.476957
0.460265 0.0359951 0.460604
0.464367 0.03048 0.46354
0.46051 0.0310605 0.476346
0.4813 0.0227459 0.476307
0.494517 0.0370546 0.472712
0.495891 0.0394601 0.465652
0.484182 0.025844 0.472882
0.482632 0.0350237 0.463815
0.483486 0.0275503 0.476525
0.503585 0.0286485 0.466412
0.506376 0.0243739 0.467552
0.503588 0.02116 0.473588
0.51551 0.0205763 0.464812
0.502999 0.0393938 0.470786
0.511507 0.0397935 0.466733
0.529147 0.0247871 0.475708
0.531749 0.0376135 0.467695
0.526014 0.0385202 0.467197
0.53978 0.0385234 0.462139
0.536962 0.0386854 0.474089
0.538007 0.0364703 0.471826
0.558734 0.0328763 0.461972
0.553757 0.039702 0.462258
0.557287 0.0285311 0.472295
0.555658 0.0380493 0.472105
0.543369 0.0361513 0.476716
0.544564 0.0292731 0.462862
0.56027 0.0384931 0.472032
0.57557 0.038453 0.460973
0.573367 0.0236272 0.463114
0.566956 0.0204889 0.478768
0.563748 0.0312736 0.462191
0.564535 0.029469 0.477484
0.596718 0.0287619 0.471403
0.597384 0.0230673 0.463642
0.581757 0.0389408 0.468993
0.592461 0.0260286 0.477292
0.598917 0.0342827 0.477983
0.592318 0.0319536 0.475969
0.604992 0.0356256 0.466631
0.611314 0.0351457 0.47697
0.606511 0.0286858 0.474588
0.603402 0.0236323 0.473622
0.600539 0.0349583 0.471702
0.612986 0.0234443 0.462189
0.620611 0.0320983 0.463303
0.633299 0.0259739 0.467494
0.635116 0.0344655 0.468903
0.624658 0.0335593 0.466792
0.624487 0.0205054 0.466598
0.624332 0.0308084 0.466512
0.64374 0.0205469 0.472907
0.654887 0.0340723 0.473842
0.653681 0.0312218 0.46395
0.659598 0.0358801 0.460867
0.641748 0.0386168 0.473651
0.658895 0.0356813 0.46522
0.662506 0.021749 0.479721
0.665827 0.0234407 0.465187
0.66041 0.0202128 0.479034
0.661286 0.0250609 0.467496
0.677973 0.0206891 0.463345
0.662738 0.0390329 0.473021
0.696543 0.0395864 0.465977
0.684847 0.0248004 0.467171
0.693907 0.027366 0.463533
0.683505 0.0323413 0.463449
0.682052 0.0357662 0.465655
0.680393 0.0385528 0.469089
0.71365 0.0276558 0.465435
0.705732 0.0203426 0.473634
0.71596 0.0248557 0.475616
0.71202 0.036051 0.468304
0.70496 0.0237878 0.461836
0.706641 0.0225478 0.476639
0.735371 0.0376281 0.462432
0.72459 0.0303207 0.471158
0.725358 0.0250558 0.47853
0.729318 0.0219081 0.477157
0.737877 0.0356951 0.468965
0.728656 0.0247803 0.461118
0.750293 0.0338202 0.472142
0.749126 0.0234569 0.460744
0.759081 0.0365663 0.464039
0.75101 0.0219723 0.478246
0.742112 0.0256915 0.471812
0.748451 0.0388474 0.463543
0.775964 0.0345427 0.463199
0.760525 0.0365387 0.463661
0.762001 0.032093 0.462152
0.779157 0.0397987 0.473178
0.777359 0.0372484 0.471383
0.768952 0.021758 0.464534
0.197822 0.0423132 0.46947
0.18705 0.0415146 0.479064
0.194637 0.0495548 0.461802
0.195445 0.0548619 0.468515
0.18782 0.0451762 0.467789
0.196146 0.0565044 0.471523
0.217991 0.0560087 0.47418
0.219144 0.0490835 0.472524
0.217528 0.0506801 0.47727
0.213258 0.0505094 0.470364
0.215789 0.0574772 0.476072
0.217179 0.0541066 0.474614
0.229761 0.0448663 0.476035
0.23878 0.0421791 0.473387
0.226558 0.0412774 0.471274
0.23264 0.0567549 0.467198
0.224258 0.0566597 0.47441
0.228759 0.0528178 0.472089
0.259394 0.0447792 0.475448
0.251835 0.0425882 0.47547
0.248281 0.0454361 0.465299
0.25137 0.054835 0.464584
0.255379 0.0450128 0.478908
0.248407 0.0479321 0.466635
0.279337 0.0456317 0.469202
0.268964 0.0534425 0.475198
0.274832 0.0437267 0.467393
0.26713 0.0450935 0.468538
0.267729 0.042733 0.474926
0.266757 0.0491811 0.478398
0.281168 0.0531268 0.462774
0.291385 0.0576403 0.464641
0.290309 0.0461275 0.470508
0.290376 0.0537917 0.470219
0.29953 0.0447205 0.468381
0.285334 0.0435428 0.471034
0.306315 0.0457845 0.474023
0.300487 0.0461438 0.4624
0.30704 0.0406643 0.470635
0.304413 0.0496208 0.476481
0.303821 0.0483226 0.46941
0.317951 0.0518449 0.473508
0.338431 0.0576549 0.46974
0.32038 0.0497885 0.473922
0.333569 0.052306 0.468226
0.334714 0.0465159 0.465624
0.330242 0.04746 0.47274
0.331264 0.0585219 0.477293
0.350603 0.0537692 0.476884
0.342934 0.0516673 0.476615
0.355739 0.0410508 0.467649
0.34854 0.0429754 0.46546
0.356081 0.0566706 0.477832
0.359545 0.0464396 0.472214
0.361483 0.0423354 0.464171
0.377176 0.0471006 0.473963
0.36977 0.0514129 0.47316
0.366014 0.054143 0.462416
0.37369 0.058961 0.479322
0.37097 0.0421404 0.472736
0.380657 0.0409472 0.476261
0.387877 0.0445734 0.469379
0.396572 0.0573194 0.473129
0.394217 0.0444198 0.47862
0.380341 0.057738 0.475059
0.385274 0.0523111 0.46555
0.403111 0.0420987 0.460594
0.408188 0.0468919 0.472222
0.415301 0.0495973 0.468191
0.405015 0.04161 0.46513
0.407267 0.0512678 0.472037
0.418775 0.0427051 0.468766
0.432375 0.0487272 0.471618
0.424496 0.0552936 0.462708
0.43379 0.052459 0.465603
0.427561 0.0551589 0.476198
0.432367 0.0523593 0.46244
0.430374 0.0492509 0.462939
0.453652 0.0595025 0.469744
0.452369 0.0555176 0.471733
0.453554 0.0450289 0.463561
0.455932 0.0561113 0.469073
0.458596 0.0420414 0.479697
0.45051 0.0597282 0.47223
0.477657 0.0474812 0.468486
0.464514 0.0495364 0.475944
0.461043 0.0464713 0.470521
0.461831 0.0538765 0.465067
0.463505 0.0536277 0.478589
0.474877 0.0506888 0.463965
0.498668 0.0581508 0.476973
0.480268 0.0577507 0.460918
0.487304 0.0429762 0.466542
0.484369 0.0561522 0.47677
0.483175 0.0554431 0.46744
0.485908 0.0420054 0.471101
0.513013 0.0474505 0.476063
0.514246 0.0549464 0.464238
0.509231 0.040886 0.461521
0.514378 0.0584273 0.472558
0.518839 0.0513468 0.473605
0.51126 0.0548059 0.467573
0.525011 0.0457434 0.466863
0.530912 0.0421534 0.465737
0.529364 0.0517934 0.464643
0.522536 0.0453833 0.468014
0.528405 0.0582705 0.471816
0.536176 0.0586152 0.463298
0.559141 0.0543367 0.475434
0.543312 0.0504729 0.462851
0.5554 0.0532875 0.475341
0.554731 0.0455684 0.479376
0.547212 0.0473741 0.475853
0.559366 0.0555389 0.470783
0.565682 0.0458663 0.464406
0.564674 0.0551085 0.462233
0.569699 0.0443758 0.47945
0.576178 0.0438358 0.473674
0.561751 0.0535252 0.465062
0.566636 0.0413171 0.461947
0.595647 0.0518662 0.467881
0.582191 0.0417003 0.477609
0.592924 0.0482578 0.473208
0.592864 0.0591621 0.463492
0.597596 0.0570478 0.474314
0.593568 0.0454306 0.469755
0.603461 0.041412 0.472638
0.610713 0.0473869 0.472467
0.605007 0.0489265 0.467189
0.609011 0.0433108 0.47423
0.615456 0.0460121 0.474767
0.618738 0.0581772 0.47187
0.622931 0.0550312 0.467718
0.628177 0.0459341 0.478471
0.637291 0.0439673 0.466914
0.627025 0.0561638 0.465374
0.627945 0.0491247 0.460609
0.628939 0.0434432 0.462047
0.659357 0.0406692 0.472837
0.653297 0.052128 0.479658
0.657977 0.0450998 0.474485
0.654865 0.0447458 0.466275
0.653902 0.041415 0.462368
0.647425 0.0456562 0.472436
0.66075 0.0470412 0.478771
0.672399 0.0490919 0.467649
0.666754 0.0519595 0.475876
0.665859 0.0505004 0.47165
0.665725 0.0509733 0.464476
0.662292 0.0432448 0.473665
0.681512 0.0577041 0.468942
0.684834 0.0461906 0.474752
0.695396 0.0578021 0.469195
0.684609 0.0451101 0.471796
0.698123 0.0520437 0.466526
0.685785 0.043145 0.477788
0.708457 0.0515843 0.472836
0.717335 0.05035 0.46967
0.710498 0.050383 0.47925
0.716125 0.0477736 0.473794
0.713656 0.0564807 0.46107
0.714779 0.057438 0.475352
0.723706 0.0556422 0.471261
0.72308 0.0422454 0.470452
0.722372 0.0548251 0.463018
0.733853 0.0562948 0.475067
0.722105 0.0424064 0.465765
0.728769 0.0565035 0.468898
0.749239 0.0510308 0.466945
0.743947 0.0422005 0.471222
0.74944 0.0403966 0.462083
0.741261 0.0551657 0.467264
0.754641 0.0554416 0.477834
0.758784 0.0532034 0.474752
0.760841 0.0429585 0.474561
0.761034 0.0409544 0.47388
0.778346 0.0452349 0.466505
0.775597 0.0458772 0.479362
0.760602 0.0561454 0.473311
0.760389 0.0594776 0.46211
0.784767 0.0531068 0.475244
0.781656 0.0450185 0.470646
0.791133 0.0418043 0.476629
0.792724 0.0449158 0.47109
0.788927 0.0431724 0.478006
0.786449 0.0490554 0.471207
0.813198 0.0424776 0.466704
0.812103 0.0423634 0.469637
0.815661 0.0451107 0.461697
0.813198 0.0451718 0.465638
0.810736 0.0485421 0.479781
0.802442 0.0481089 0.461026
0.158457 0.0696815 0.473248
0.158869 0.0791623 0.463021
0.157711 0.0718551 0.479598
0.154976 0.0660253 0.468129
0.154209 0.0770425 0.479155
0.144079 0.077806 0.477275
0.174445 0.0752672 0.460615
0.171717 0.0667764 0.475576
0.163988 0.0708855 0.466475
0.16905 0.0651401 0.471642
0.168759 0.0657415 0.464963
0.169197 0.0783574 0.477857
0.199399 0.0652645 0.473915
0.186691 0.0675382 0.47533
0.189495 0.0630943 0.467198
0.19282 0.0647248 0.468504
0.193549 0.0692621 0.478969
0.180334 0.0725396 0.475544
0.205562 0.0730581 0.479004
0.211914 0.0689717 0.469625
0.218087 0.0787032 0.464121
0.219768 0.0681579 0.47267
0.210732 0.0723033 0.46548
0.207507 0.0634795 0.472398
0.223876 0.0678105 0.468106
0.229769 0.0662917 0.479247
0.235828 0.0658082 0.466983
0.233605 0.065913 0.471141
0.233079 0.0750586 0.467547
0.220561 0.0642884 0.468984
0.249477 0.0764654 0.46467
0.25163 0.0637964 0.463177
0.259704 0.0666038 0.468099
0.255238 0.0707506 0.479755
0.247457 0.0638094 0.4786
0.253206 0.0670778 0.467975
0.267374 0.07732 0.466354
0.264396 0.0713795 0.47706
0.275827 0.0785004 0.460315
0.266957 0.0682617 0.471773
0.26806 0.072299 0.475662
0.273397 0.0659698 0.465363
0.288906 0.0618869 0.462441
0.282465 0.0681561 0.462123
0.289087 0.0777339 0.465514
0.284244 0.0762372 0.476379
0.286671 0.0787243 0.471482
0.287737 0.0645177 0.477356
0.308391 0.0693569 0.462333
0.301261 0.0755019 0.464776
0.30849 0.0709325 0.471955
0.301208 0.0655768 0.474004
0.315635 0.0737801 0.47026
0.30439 0.0753087 0.47291
0.323603 0.0736946 0.472802
0.335077 0.0739141 0.470954
0.335029 0.0661136 0.478571
0.328651 0.0646431 0.460484
0.32907 0.0693726 0.467267
0.322 0.0775373 0.470721
0.347357 0.0687626 0.4721
0.342293 0.0642245 0.46785
0.344838 0.0608567 0.463606
0.346902 0.0749045 0.479545
0.344422 0.0646063 0.479787
0.343236 0.0774064 0.470686
0.376655 0.0623679 0.477805
0.372042 0.0709668 0.464309
0.364878 0.079129 0.467625
0.360648 0.0630453 0.466083
0.367518 0.0620428 0.474218
0.375474 0.0734368 0.478775
0.397301 0.0755288 0.473341
0.386782 0.0679948 0.477474
0.398885 0.076508 0.474608
0.384298 0.0671076 0.465938
0.383401 0.0617408 0.474121
0.393121 0.0685711 0.463073
0.419615 0.0782422 0.475955
0.413418 0.0674506 0.466879
0.416772 0.0636342 0.469701
0.40177 0.0779942 0.479149
0.40227 0.0609947 0.460284
0.411754 0.0668101 0.475597
0.431328 0.0626186 0.469778
0.434029 0.0686043 0.474558
0.434707 0.065012 0.473501
0.42756 0.0628473 0.473294
0.427293 0.0686647 0.462141
0.439724 0.0649169 0.460409
0.450693 0.0683184 0.475207
0.445572 0.061433 0.469051
0.450817 0.0769684 0.477201
0.444649 0.0635311 0.464136
0.445584 0.0740971 0.478242
0.454978 0.0734325 0.477238
0.460807 0.0695472 0.466164
0.465049 0.0618872 0.464672
0.475122 0.0766225 0.46865
0.471591 0.0775525 0.460255
0.460317 0.0744794 0.473901
0.470389 0.0649168 0.462846
0.497739 0.0693885 0.46681
0.497768 0.0732919 0.478651
0.495736 0.067887 0.46267
0.493708 0.0656101 0.463396
0.481354 0.0769668 0.469788
0.480705 0.0761719 0.47103
0.50935 0.068399 0.471905
0.51314 0.0725924 0.46297
0.505633 0.06825 0.469754
0.501791 0.0603085 0.465272
0.510828 0.061596 0.47854
0.519153 0.0731445 0.478644
0.534199 0.078128 0.473843
0.531437 0.0710288 0.463949
0.537076 0.0655469 0.47533
0.525643 0.0648735 0.471827
0.522426 0.0770502 0.467717
0.53383 0.0734632 0.460312
0.551412 0.0630334 0.475381
0.549187 0.0673549 0.476892
0.541242 0.0734276 0.470423
0.541581 0.0635744 0.475554
0.551972 0.076037 0.463362
0.559094 0.0691785 0.478457
0.565636 0.0721808 0.472969
0.576293 0.0668727 0.477104
0.562362 0.0725336 0.468091
0.565391 0.0711722 0.473997
0.570647 0.0651634 0.477485
0.568136 0.0712542 0.466998
0.587686 0.067348 0.472164
0.59091 0.0788764 0.477412
0.59891 0.0779844 0.478773
0.580684 0.0617078 0.47656
0.58821 0.0705322 0.460753
0.596551 0.0742633 0.465531
0.615903 0.0656002 0.475426
0.616825 0.0633577 0.471619
0.605887 0.0713234 0.460863
0.602132 0.0712533 0.461867
0.602139 0.0649005 0.473773
0.603976 0.079282 0.46276
0.621709 0.0665888 0.46759
0.625881 0.0624275 0.475702
0.630548 0.0686927 0.470467
0.631708 0.0640134 0.468725
0.637643 0.0760322 0.477089
0.625035 0.0712915 0.465432
0.652832 0.0713852 0.471095
0.649665 0.0615705 0.460694
0.646048 0.0620658 0.464799
0.656134 0.0611206 0.472501
0.648326 0.0734401 0.476128
0.645252 0.0752225 0.478172
0.666132 0.0672029 0.478477
0.67423 0.0793631 0.473955
0.678398 0.0648096 0.475376
0.665607 0.0673034 0.479669
0.667809 0.0694856 0.477984
0.67917 0.0641142 0.47468
0.696123 0.0735137 0.461644
0.692397 0.0654423 0.462216
0.691734 0.0771718 0.471411
0.682415 0.0694802 0.475277
0.697088 0.0670253 0.475857
0.691026 0.0795703 0.468507
0.715451 0.062524 0.476579
0.70731 0.0797251 0.477257
0.703028 0.0765124 0.471745
0.715957 0.0675036 0.477346
0.71521 0.0736561 0.462379
0.701104 0.0752747 0.460417
0.736582 0.0723366 0.46127
0.732963 0.0765933 0.467753
0.734385 0.0760563 0.468499
0.729287 0.0633038 0.466938
0.72959 0.0639037 0.467188
0.738025 0.0705386 0.469556
0.740213 0.0748198 0.474672
0.750942 0.0611627 0.462368
0.748777 0.0739009 0.46475
0.75807 0.0760951 0.471894
0.746255 0.0758433 0.479006
0.742672 0.0674831 0.47663
0.762832 0.0644585 0.471804
0.761825 0.0786692 0.47827
0.779712 0.0765121 0.475634
0.766217 0.0654898 0.477435
0.77105 0.0696186 0.467927
0.767183 0.0735378 0.468574
0.787466 0.0624817 0.462802
0.789168 0.073064 0.479295
0.799344 0.0715005 0.463383
0.783589 0.0731677 0.464584
0.796847 0.0607978 0.466523
0.782074 0.0758492 0.47734
0.813939 0.0716277 0.46149
0.81307 0.0732301 0.460398
0.81711 0.0779455 0.468226
0.815094 0.0624497 0.464854
0.803439 0.0680049 0.466453
0.813276 0.0760971 0.471357
0.825022 0.0724781 0.475632
0.838477 0.0672107 0.4622
0.823736 0.077045 0.47692
0.837337 0.0711473 0.470563
0.832079 0.0606047 0.467972
0.838708 0.067475 0.466508
0.848828 0.0681328 0.461838
0.844224 0.0605717 0.460638
0.846672 0.0790052 0.469006
0.843255 0.0666233 0.470819
0.848714 0.0616069 0.467253
0.845981 0.0789922 0.477724
0.137423 0.0845404 0.467617
0.12508 0.0840531 0.472416
0.13779 0.0896184 0.463427
0.135309 0.0836929 0.473519
0.139474 0.0907097 0.474886
0.13182 0.0842817 0.461155
0.143235 0.096627 0.461851
0.15382 0.0886716 0.461407
0.147896 0.0918172 0.475667
0.149383 0.0996083 0.471693
0.142306 0.0915749 0.475615
0.155042 0.0958311 0.469259
0.172888 0.0930498 0.468104
0.170384 0.0850588 0.472194
0.166931 0.0877253 0.479141
0.167326 0.096863 0.476551
0.173556 0.0821257 0.468877
0.173785 0.098044 0.467159
0.192226 0.0992539 0.475326
0.197089 0.0912629 0.469481
0.197016 0.0944584 0.47656
0.194721 0.0884493 0.469557
0.195139 0.0870652 0.468543
0.193951 0.0995202 0.47261
0.206679 0.088612 0.471938
0.204317 0.0977558 0.474122
0.201004 0.0937635 0.460874
0.214126 0.0967756 0.471483
0.207277 0.0928079 0.477041
0.212916 0.0959755 0.463278
0.234634 0.0819378 0.473724
0.234526 0.0837294 0.469242
0.236027 0.0896461 0.470509
0.237652 0.0863441 0.463719
0.233976 0.0915853 0.472456
0.233962 0.0839633 0.463361
0.24251 0.0970313 0.46045
0.2419 0.0950749 0.462729
0.24289 0.0816042 0.465865
0.258593 0.0887059 0.466861
0.25141 0.0928416 0.473196
0.256234 0.0960598 0.476491
0.279219 0.0846981 0.47438
0.260949 0.0919927 0.471552
0.267577 0.0884556 0.464479
0.269124 0.0846945 0.476291
0.26541 0.0950402 0.463413
0.272862 0.0827 0.466416
0.288467 0.0943028 0.467893
0.290457 0.0859588 0.47871
0.28441 0.0860073 0.470886
0.288189 0.0930422 0.463085
0.295242 0.0896306 0.478021
0.291839 0.0870646 0.474625
0.317418 0.0918227 0.463612
0.312515 0.0997971 0.465085
0.307968 0.0891925 0.472778
0.31842 0.0852198 0.465846
0.313074 0.0838385 0.47059
0.30255 0.0808412 0.462692
0.331968 0.0906882 0.462213
0.322267 0.0850742 0.478451
0.32819 0.0919162 0.460925
0.329739 0.094111 0.462943
0.326616 0.0935538 0.46601
0.33687 0.0929028 0.473939
0.345704 0.0920751 0.475864
0.351998 0.0964024 0.476352
0.359109 0.0878593 0.463611
0.341834 0.09777 0.473667
0.341312 0.0958692 0.474238
0.353063 0.0813981 0.472614
0.379311 0.098822 0.460928
0.360584 0.0830278 0.469356
0.373184 0.0994388 0.461275
0.366867 0.084663 0.460883
0.379253 0.0883981 0.466795
0.377488 0.0803046 0.460993
0.398352 0.0994025 0.463478
0.383555 0.0821451 0.46819
0.386557 0.097069 0.471056
0.388135 0.09527 0.465921
0.383305 0.0826475 0.471362
0.384443 0.0892582 0.465117
0.406127 0.0847527 0.477096
0.408905 0.0976721 0.461369
0.41622 0.0922078 0.464812
0.418922 0.0822764 0.475433
0.414657 0.0892152 0.477809
0.419595 0.0818967 0.46484
0.439347 0.0835765 0.466811
0.434301 0.097658 0.463289
0.420545 0.0833365 0.465277
0.437634 0.0919431 0.464085
0.425546 0.0853794 0.475077
0.436758 0.0887842 0.465394
0.459666 0.094008 0.467607
0.456069 0.0946833 0.469374
0.45966 0.0986099 0.47577
0.442947 0.0896591 0.46111
0.455194 0.0895092 0.468393
0.455448 0.0875438 0.473384
0.463406 0.086218 0.478676
0.46889 0.0953383 0.473275
0.474703 0.0808636 0.476458
0.47572 0.0933052 0.46133
0.467657 0.0995384 0.473424
0.472227 0.0842906 0.46722
0.499786 0.0858575 0.466224
0.485849 0.0868334 0.473091
0.486205 0.0886419 0.479581
0.481501 0.0995804 0.468063
0.493569 0.0859314 0.460595
0.492987 0.0954053 0.468959
0.500315 0.0957193 0.475364
0.509352 0.0848357 0.471924
0.506737 0.0843715 0.472937
0.510327 0.0805789 0.470786
0.50736 0.0975971 0.46924
0.501277 0.0842993 0.462147
0.522459 0.0857355 0.463626
0.530561 0.088665 0.472333
0.531527 0.098449 0.464432
0.528655 0.0808725 0.473144
0.528597 0.0861454 0.468111
0.536503 0.0807783 0.475828
0.55158 0.0906305 0.473089
0.557105 0.0940539 0.467348
0.542821 0.0864174 0.461651
0.555213 0.0865494 0.469234
0.541626 0.0887933 0.475009
0.549297 0.0976191 0.46049
0.603105 0.080372 0.468898
0.602205 0.0963751 0.479039
0.615663 0.0876435 0.464791
0.613747 0.0926963 0.469559
0.600602 0.0954013 0.469494
0.607779 0.0907174 0.47279
0.632311 0.0977473 0.461933
0.632154 0.096896 0.467447
0.620954 0.0858242 0.472208
0.627276 0.081497 0.471376
0.636354 0.0906236 0.469798
0.633984 0.0815411 0.468331
0.644842 0.0842558 0.461314
0.644127 0.0861969 0.468624
0.647565 0.0839511 0.476952
0.658554 0.0846137 0.479728
0.641829 0.0802427 0.467645
0.653959 0.0844124 0.477085
0.672445 0.082191 0.473584
0.677083 0.0841589 0.475331
0.675905 0.0957154 0.460814
0.675305 0.09695 0.472339
0.66876 0.0904162 0.46483
0.672412 0.0854323 0.461317
0.699327 0.0902376 0.461444
0.682928 0.091242 0.476986
0.690691 0.0812152 0.474444
0.690929 0.0880244 0.465895
0.695258 0.0804455 0.464299
0.694579 0.0983717 0.464597
0.704208 0.0988797 0.469069
0.717312 0.0890623 0.471556
0.711017 0.0977297 0.473283
0.710887 0.0976431 0.47448
0.716986 0.0861017 0.477484
0.716301 0.0867916 0.473818
0.739441 0.0911056 0.475936
0.736472 0.0968947 0.46626
0.73451 0.0826822 0.467386
0.731559 0.0884936 0.463104
0.736102 0.0847693 0.471276
0.739697 0.0808359 0.463989
0.754265 0.0937064 0.464232
0.747824 0.0986724 0.473417
0.745523 0.0809525 0.479235
0.752223 0.0817229 0.470476
0.757536 0.0940894 0.461972
0.746407 0.0850789 0.47637
0.770697 0.0804574 0.463991
0.767938 0.0844902 0.473801
0.764265 0.0969128 0.461131
0.776734 0.0885607 0.463496
0.76303 0.0914581 0.468079
0.760375 0.0878041 0.473947
0.799551 0.0948648 0.462284
0.795075 0.0920767 0.464381
0.790639 0.086172 0.465435
0.790545 0.0809831 0.47407
0.796011 0.0963277 0.479666
0.791882 0.0960831 0.466984
0.811028 0.0952611 0.476485
0.818561 0.0809856 0.4686
0.817342 0.0932204 0.466094
0.805297 0.0874641 0.46751
0.807258 0.0921914 0.472201
0.803226 0.0818325 0.460685
0.826483 0.0946211 0.477748
0.830426 0.0950803 0.478734
0.839333 0.0902716 0.477311
0.832904 0.0814533 0.472848
0.830462 0.0805936 0.470505
0.822362 0.0840751 0.478134
0.851708 0.0870888 0.461602
0.855205 0.0928932 0.476518
0.855331 0.0883804 0.462558
0.844244 0.0927957 0.476016
0.855765 0.0887533 0.476422
0.85023 0.0852023 0.461979
0.872808 0.0947056 0.479082
0.870845 0.0865992 0.47053
0.87349 0.0987229 0.479042
0.86875 0.0871455 0.463819
0.87771 0.0931914 0.472107
0.873476 0.0918709 0.467208
0.101592 0.1191 0.471081
0.10901 0.110287 0.479733
0.10349 0.103057 0.476027
0.119594 0.10823 0.460478
0.101441 0.100322 0.473246
0.118457 0.115804 0.463284
0.121869 0.106993 0.469262
0.138109 0.113491 0.466144
0.126325 0.115818 0.478003
0.133681 0.107324 0.470661
0.134908 0.115988 0.467201
0.134632 0.116473 0.471962
0.142852 0.102589 0.47209
