ply
format ascii 1.0
element vertex 1766
property float x
property float y
property float z
end_header
0.734764 0.0704139 0.362641
0.730829 0.078727 0.374665
0.726258 0.0640005 0.378529
0.748855 0.0606338 0.376698
0.744944 0.0662941 0.378655
0.741764 0.061295 0.36233
0.754773 0.0634193 0.372684
0.747448 0.0737186 0.373264
0.745201 0.0608864 0.366332
0.773292 0.0692366 0.36404
0.760455 0.0697113 0.377045
0.77718 0.0694554 0.369528
0.776282 0.0661698 0.376968
0.772273 0.078929 0.379122
0.7679 0.0790408 0.375298
0.794926 0.0637579 0.366522
0.786938 0.0710984 0.366542
0.791269 0.0606899 0.36942
0.798163 0.0755785 0.360591
0.789227 0.0663907 0.378252
0.795436 0.0742903 0.375932
0.800222 0.0780939 0.373101
0.808353 0.0696778 0.365726
0.803242 0.0633607 0.362525
0.802945 0.0725653 0.37225
0.804845 0.0772797 0.375683
0.81102 0.0640267 0.370243
0.826171 0.0633758 0.370947
0.825226 0.0767357 0.364508
0.821319 0.0741617 0.372661
0.82605 0.0666991 0.377078
0.836292 0.0758361 0.361131
0.821784 0.0755311 0.372129
0.859332 0.0742586 0.366956
0.848832 0.0767576 0.363569
0.854775 0.0649999 0.360354
0.842824 0.0605403 0.372522
0.859207 0.0612 0.376555
0.851763 0.0655882 0.364539
0.871422 0.0641099 0.376072
0.861381 0.0617895 0.368769
0.869706 0.0628356 0.374679
0.873046 0.0662433 0.37102
0.861838 0.0779251 0.376941
0.866182 0.0706288 0.379103
0.893755 0.0673658 0.376419
0.898313 0.0751776 0.373205
0.887386 0.0737989 0.37934
0.885864 0.0761451 0.377804
0.895596 0.0730257 0.3784
0.889612 0.0755035 0.366081
0.913492 0.0648834 0.371723
0.918348 0.076522 0.366319
0.904157 0.0780025 0.368702
0.912765 0.0789244 0.364896
0.903213 0.0712201 0.371524
0.909068 0.0655349 0.369067
0.925937 0.0666115 0.364401
0.927831 0.0772371 0.371173
0.925382 0.0780494 0.368771
0.937725 0.0746366 0.37364
0.936915 0.0692366 0.36193
0.937491 0.0747899 0.37907
0.952215 0.0714606 0.366129
0.944689 0.0747268 0.362873
0.954637 0.0702768 0.37339
0.95446 0.0674808 0.36816
0.955811 0.0748468 0.377087
0.943026 0.0785079 0.366399
0.979012 0.0633009 0.367062
0.967133 0.0746635 0.361682
0.978203 0.0777039 0.365728
0.960861 0.0786659 0.369502
0.966177 0.0641561 0.367293
0.972103 0.069532 0.363262
0.993605 0.0705477 0.369294
0.983799 0.0646242 0.364118
0.994985 0.076971 0.368604
0.988207 0.0670031 0.365377
0.982465 0.07315 0.363104
0.99195 0.0771706 0.360797
1.01161 0.074946 0.375866
1.00296 0.0773659 0.370748
1.00383 0.0685311 0.378836
1.00265 0.0791287 0.362024
1.01799 0.0770039 0.370726
1.0059 0.0604092 0.364941
1.03099 0.068262 0.367475
1.03752 0.065666 0.367441
1.02575 0.0787061 0.363065
1.02072 0.0762735 0.375399
1.02565 0.0633435 0.361159
1.03432 0.066139 0.36304
1.04777 0.0787803 0.362035
1.05069 0.0633717 0.376891
1.05536 0.0654891 0.373104
1.0515 0.065171 0.362131
1.05172 0.0664206 0.371252
1.05591 0.0656412 0.374277
1.06069 0.0667154 0.375137
1.0661 0.0775447 0.36731
1.06279 0.0657708 0.360517
1.07245 0.0759934 0.364892
1.07929 0.0618075 0.368807
1.07123 0.0766057 0.37222
1.08827 0.0655557 0.363973
1.09949 0.0743575 0.366015
1.08545 0.0776432 0.366687
1.08106 0.0709566 0.369784
1.09121 0.0680168 0.36606
1.09821 0.0665219 0.370815
1.10076 0.0670624 0.379752
1.10826 0.0619897 0.3633
1.11767 0.0779407 0.366954
1.10478 0.0646039 0.362421
1.11698 0.0684211 0.379069
1.11538 0.0715515 0.372644
1.13231 0.0761611 0.36026
1.12104 0.0797315 0.364454
1.13557 0.0792176 0.379047
1.12936 0.0656935 0.376253
1.13327 0.0789725 0.374148
1.12152 0.0678153 0.364211
1.15639 0.0697064 0.370725
1.14261 0.0704371 0.374938
1.15065 0.0771675 0.375302
1.1463 0.0622028 0.376394
1.14102 0.0626802 0.37115
1.14605 0.0728091 0.361104
1.17951 0.0622365 0.367514
1.16601 0.0793376 0.368014
1.16158 0.0627056 0.373818
1.17886 0.0756524 0.360993
1.17838 0.0790208 0.361635
1.17829 0.0639938 0.370922
1.19459 0.0645545 0.377496
1.18368 0.0611194 0.374752
1.18152 0.0644816 0.362806
1.18977 0.0743918 0.375014
1.1806 0.0645732 0.376844
1.18358 0.0722211 0.36365
1.20524 0.0630555 0.379308
1.21109 0.0650758 0.376529
1.20511 0.069529 0.367552
1.20928 0.0764885 0.379113
1.20788 0.0740236 0.363263
1.21134 0.0615605 0.369335
1.22778 0.0742546 0.376942
1.22111 0.0609027 0.379344
1.22511 0.0721251 0.36713
1.22053 0.0726795 0.37073
1.22462 0.0649081 0.367885
1.23365 0.0728747 0.362886
0.334424 0.0885964 0.372095
0.334838 0.0930238 0.375897
0.33221 0.0834381 0.376846
0.321924 0.0908081 0.361256
0.323705 0.0823196 0.369763
0.323491 0.0952235 0.365502
0.345521 0.0876659 0.360287
0.34318 0.0827582 0.366172
0.359502 0.083028 0.364926
0.355187 0.0948356 0.37635
0.349133 0.0913634 0.375082
0.358013 0.0960236 0.367279
0.363249 0.0942107 0.37033
0.367362 0.0916477 0.37593
0.372238 0.0839937 0.375717
0.378524 0.0977052 0.377575
0.36668 0.0827946 0.371866
0.360523 0.0819261 0.369664
0.389654 0.0980039 0.369642
0.384063 0.0874819 0.360819
0.381172 0.0806304 0.37861
0.385599 0.0985492 0.366644
0.399192 0.093153 0.36473
0.380682 0.0994461 0.367118
0.415963 0.0818399 0.379099
0.402212 0.084866 0.361919
0.404454 0.0884361 0.373471
0.412643 0.0922548 0.378051
0.419107 0.0961688 0.368753
0.406755 0.0828789 0.369737
0.427396 0.0932879 0.365877
0.424949 0.0853371 0.374168
0.425624 0.0819424 0.369223
0.424148 0.0877552 0.366725
0.422421 0.0864301 0.376589
0.430894 0.0928235 0.377938
0.459352 0.081887 0.37699
0.451794 0.084224 0.371608
0.453526 0.0867525 0.375665
0.447616 0.0983465 0.378353
0.449359 0.0846099 0.36581
0.458781 0.0802378 0.361445
0.479686 0.0848325 0.361607
0.471934 0.0903182 0.373723
0.467056 0.0863898 0.377027
0.478898 0.0803224 0.373127
0.46974 0.085025 0.363395
0.474073 0.0827752 0.366025
0.495537 0.0884925 0.375834
0.483329 0.0890606 0.377358
0.488064 0.0911904 0.36689
0.49274 0.0923048 0.371159
0.493539 0.0964309 0.361504
0.498841 0.0833711 0.36395
0.508539 0.0936597 0.37325
0.516542 0.0913593 0.361617
0.506472 0.0946789 0.361087
0.505434 0.0815024 0.360834
0.506142 0.0869033 0.369435
0.506217 0.0902565 0.370343
0.52062 0.0987744 0.373488
0.530322 0.0836698 0.36573
0.525145 0.0876667 0.370821
0.52112 0.0997256 0.37501
0.534847 0.0905389 0.365357
0.5338 0.0891887 0.362383
0.546523 0.0946528 0.376147
0.540648 0.0885454 0.376021
0.553031 0.0854221 0.369019
0.555003 0.0804052 0.379008
0.542873 0.0985249 0.362375
0.547063 0.0816583 0.372635
0.575604 0.0858856 0.377297
0.567388 0.081151 0.372344
0.570855 0.0909462 0.367067
0.569604 0.0804562 0.375221
0.565531 0.0831165 0.363745
0.573463 0.084562 0.366257
0.582219 0.0820756 0.370753
0.598973 0.0850666 0.37496
0.599173 0.087333 0.364979
0.587951 0.0844226 0.374888
0.583234 0.0959509 0.360864
0.594808 0.0896584 0.378775
0.60366 0.0982099 0.376375
0.609105 0.0922603 0.373168
0.611781 0.0853298 0.372682
0.606015 0.0911171 0.372242
0.604127 0.081064 0.366969
0.613902 0.0888506 0.364324
0.621417 0.0891714 0.37823
0.631888 0.0807597 0.37585
0.628389 0.0974436 0.363435
0.620972 0.0827892 0.362431
0.620637 0.090233 0.367351
0.620638 0.0933769 0.368986
0.659501 0.0856854 0.370857
0.647213 0.0913861 0.376531
0.648835 0.0906795 0.374847
0.642847 0.0997695 0.367399
0.648132 0.0937573 0.372551
0.640765 0.0973023 0.375968
0.662895 0.0906852 0.377669
0.676667 0.0944771 0.365944
0.661442 0.0855805 0.368096
0.665439 0.0960729 0.361296
0.664473 0.0918879 0.372774
0.667973 0.0821651 0.364026
0.68177 0.0958831 0.375369
0.6857 0.0842418 0.368062
0.694044 0.0991563 0.365002
0.697529 0.0848662 0.370578
0.680765 0.0906748 0.373899
0.693188 0.085038 0.378115
0.711954 0.0873101 0.369482
0.702722 0.0995651 0.360833
0.716601 0.0967551 0.368685
0.706144 0.0820435 0.360923
0.712991 0.0979113 0.363373
0.701977 0.0863914 0.370234
0.733688 0.0881468 0.363247
0.731534 0.0910651 0.365054
0.73357 0.0968908 0.372198
0.730348 0.0897562 0.363093
0.734419 0.0907306 0.367221
0.72773 0.0876597 0.361306
0.759494 0.0830187 0.363035
0.754215 0.0813408 0.372523
0.755682 0.0829782 0.36558
0.755395 0.0985172 0.376897
0.740898 0.0934986 0.365771
0.740401 0.0888304 0.365763
0.771706 0.0979467 0.370222
0.760394 0.0921121 0.377295
0.766481 0.083389 0.369663
0.778678 0.0935421 0.374856
0.770857 0.093147 0.375953
0.77788 0.09447 0.360965
0.791834 0.0958715 0.369656
0.791356 0.0937839 0.375769
0.798585 0.0816122 0.378341
0.781275 0.0925204 0.372164
0.78104 0.0865627 0.375026
0.793943 0.0888462 0.365451
0.810917 0.0864251 0.361537
0.814787 0.0879815 0.365897
0.803957 0.0996135 0.376774
0.818951 0.0882689 0.372654
0.806426 0.0892304 0.369593
0.807127 0.0859457 0.369549
0.820469 0.083152 0.360261
0.832547 0.0935418 0.361544
0.83034 0.090654 0.365712
0.839244 0.0907219 0.376353
0.836097 0.0864107 0.3653
0.828759 0.0932651 0.369722
0.847965 0.0861098 0.366109
0.857931 0.0919335 0.373038
0.853556 0.0881804 0.369303
0.854234 0.0993997 0.361561
0.84151 0.090581 0.375937
0.852017 0.0973412 0.378177
0.876944 0.090778 0.373921
0.876615 0.094607 0.368095
0.874804 0.0943753 0.362412
0.865195 0.0819612 0.373282
0.865011 0.0881577 0.36389
0.872926 0.0883428 0.366628
0.89582 0.097704 0.363215
0.884296 0.0957116 0.37584
0.886007 0.0961059 0.368371
0.890356 0.0974844 0.362955
0.899348 0.0924705 0.360972
0.885463 0.0961134 0.362406
0.901014 0.080766 0.378343
0.915529 0.0811179 0.36616
0.913565 0.0990296 0.378049
0.914302 0.090259 0.366803
0.904553 0.0959341 0.36292
0.911402 0.0857757 0.364007
0.931552 0.0830752 0.378564
0.925941 0.082902 0.377325
0.935081 0.0837919 0.365983
0.936415 0.0821747 0.365488
0.921822 0.0876035 0.370435
0.938676 0.0983498 0.372948
0.950856 0.0994591 0.378563
0.944346 0.0802609 0.37229
0.952001 0.0870728 0.374683
0.954911 0.0867799 0.366369
0.949714 0.0942332 0.360217
0.944705 0.0973543 0.377525
0.961698 0.0906667 0.361302
0.96732 0.0827133 0.375323
0.97197 0.0924329 0.369025
0.973926 0.081462 0.37962
0.975874 0.0947706 0.372762
0.979088 0.0833324 0.379139
0.993208 0.0858462 0.371815
0.994881 0.0815378 0.367402
0.994871 0.098699 0.37038
0.985664 0.0875723 0.374809
0.995969 0.0991148 0.375571
0.991627 0.0860496 0.368889
1.01893 0.0944419 0.376776
1.01237 0.0982344 0.372153
1.01639 0.0895328 0.375433
1.01264 0.0982701 0.366871
1.00272 0.0963813 0.363135
1.0013 0.0818835 0.366654
1.03386 0.089294 0.372252
1.02358 0.0839551 0.362498
1.03865 0.0875855 0.363927
1.02506 0.0979555 0.370336
1.03559 0.0945682 0.371346
1.03946 0.0914192 0.37827
1.04891 0.0881185 0.374915
1.04224 0.093963 0.377217
1.04158 0.0886034 0.363705
1.05921 0.0996643 0.373782
1.04434 0.0990301 0.379067
1.04435 0.0881423 0.37141
1.0709 0.0923653 0.374983
1.07949 0.0985972 0.373437
1.07247 0.095479 0.379644
1.06194 0.0821764 0.376623
1.06595 0.0956181 0.375239
1.07092 0.0851502 0.362629
1.09944 0.092716 0.376871
1.08318 0.0897715 0.371912
1.08186 0.0956309 0.375135
1.08338 0.0829634 0.377871
1.09944 0.0831895 0.370231
1.08782 0.0969056 0.369243
1.10845 0.0921294 0.369545
1.10452 0.0984884 0.364534
1.11354 0.0985581 0.375998
1.10291 0.0930829 0.377035
1.10762 0.0865245 0.361745
1.11182 0.092827 0.366791
1.12697 0.0979401 0.369233
1.12442 0.0945251 0.37367
1.12572 0.0868363 0.371059
1.12616 0.0970608 0.371241
1.13698 0.0996913 0.373859
1.13327 0.0905668 0.370802
1.15675 0.0848611 0.371807
1.14299 0.0932558 0.360812
1.14963 0.0870331 0.375891
1.14573 0.0807645 0.374997
1.15427 0.0855056 0.379675
1.14369 0.0841292 0.373376
1.17383 0.0892138 0.375931
1.17946 0.0995172 0.373365
1.1708 0.0935123 0.376914
1.17891 0.0913278 0.377862
1.17965 0.0846776 0.364991
1.16433 0.0876959 0.370643
0.406743 0.108841 0.36764
0.407035 0.114982 0.362005
0.413722 0.115968 0.37656
0.407949 0.108378 0.374221
0.407421 0.118521 0.372955
0.41842 0.116837 0.366304
0.426898 0.102081 0.365582
0.424685 0.110429 0.370531
0.436688 0.106801 0.378455
0.430699 0.105087 0.370468
0.432537 0.118763 0.375912
0.428867 0.108193 0.368606
0.453914 0.114686 0.37697
0.453342 0.109329 0.367236
0.442961 0.104617 0.370624
0.453601 0.11953 0.376165
0.446727 0.103778 0.362485
0.449708 0.108583 0.363525
0.469299 0.100738 0.368686
0.474055 0.110257 0.366835
0.477564 0.102356 0.366523
0.473259 0.113819 0.377579
0.462889 0.101519 0.366331
0.467202 0.108177 0.377015
0.497739 0.103957 0.37575
0.495034 0.1179 0.367026
0.493454 0.113426 0.361539
0.497514 0.105992 0.375426
0.496142 0.115198 0.36332
0.486844 0.103104 0.367255
0.516326 0.119358 0.377019
0.51584 0.103143 0.37569
0.505849 0.101812 0.378473
0.506669 0.112819 0.363151
0.505523 0.109763 0.373959
0.512349 0.114491 0.370257
0.533607 0.113875 0.365097
0.5365 0.100623 0.373051
0.537982 0.104198 0.360687
0.523009 0.108539 0.373685
0.525013 0.105958 0.371702
0.534689 0.115134 0.374862
0.548388 0.100527 0.368956
0.556161 0.104307 0.365272
0.545415 0.104464 0.372349
0.559518 0.108615 0.367147
0.559423 0.115645 0.373616
0.546217 0.106254 0.363251
0.562723 0.108226 0.370787
0.573688 0.112229 0.372525
0.565625 0.101661 0.366767
0.575035 0.107798 0.364893
0.579772 0.115642 0.379607
0.576785 0.116911 0.369012
0.587453 0.105072 0.377264
0.581472 0.112027 0.371521
0.598927 0.102205 0.376825
0.595461 0.116081 0.375843
0.584785 0.118883 0.367234
0.592558 0.115198 0.379036
0.608243 0.116371 0.360824
0.617117 0.113562 0.37716
0.614274 0.110519 0.377225
0.615071 0.111558 0.368775
0.61921 0.114055 0.367792
0.616674 0.110303 0.363997
0.626347 0.10927 0.361099
0.626163 0.115772 0.361794
0.629608 0.116188 0.364426
0.631503 0.106852 0.369478
0.622428 0.116761 0.371207
0.620417 0.110228 0.376461
0.655656 0.11614 0.362897
0.658797 0.117648 0.363045
0.654973 0.110491 0.364621
0.654879 0.113131 0.376002
0.658104 0.119177 0.361007
0.654417 0.113755 0.363569
0.662573 0.100278 0.378039
0.663661 0.102681 0.36265
0.664763 0.100759 0.362229
0.665645 0.117984 0.378886
0.662062 0.117863 0.364441
0.678125 0.112769 0.370685
0.689428 0.11105 0.375029
0.692125 0.101518 0.361376
0.695435 0.103015 0.372064
0.68368 0.105575 0.368967
0.693726 0.104421 0.37877
0.682255 0.105875 0.365403
0.705701 0.11577 0.368442
0.718336 0.107559 0.366225
0.706175 0.111933 0.370381
0.703161 0.116095 0.378459
0.713649 0.10219 0.377078
0.708198 0.10929 0.36287
0.728137 0.100396 0.375297
0.729716 0.107819 0.365176
0.72114 0.118911 0.374183
0.732026 0.117204 0.370244
0.727042 0.108906 0.367945
0.720994 0.100519 0.379765
0.7438 0.101427 0.375664
0.746553 0.10195 0.375887
0.752916 0.102968 0.360997
0.751378 0.103165 0.375909
0.758765 0.100465 0.375913
0.757897 0.112359 0.377434
0.775443 0.102768 0.373212
0.762883 0.112931 0.363725
0.761013 0.112032 0.370863
0.770304 0.117085 0.367032
0.775967 0.104473 0.376414
0.775319 0.100201 0.377183
0.797724 0.103426 0.366798
0.791801 0.102322 0.364606
0.791664 0.113137 0.371478
0.797278 0.10597 0.379797
0.790807 0.10776 0.361334
0.79091 0.113022 0.364088
0.810843 0.117476 0.36895
0.817406 0.118433 0.36684
0.808318 0.119667 0.372898
0.80325 0.115788 0.379601
0.808468 0.107195 0.367643
0.808986 0.114953 0.374683
0.832266 0.100289 0.376125
0.822282 0.113047 0.364135
0.833044 0.107011 0.379536
0.836305 0.106333 0.367734
0.824651 0.100813 0.366515
0.829225 0.112602 0.362111
0.846659 0.119147 0.379209
0.853751 0.119198 0.374296
0.842755 0.116022 0.365643
0.858494 0.116525 0.376991
0.84285 0.110525 0.376543
0.857552 0.101953 0.364022
0.866609 0.116625 0.375221
0.874722 0.100297 0.369613
0.873429 0.104108 0.365624
0.860343 0.119125 0.362411
0.860948 0.111927 0.373478
0.874894 0.111226 0.362242
0.883325 0.114148 0.369328
0.896078 0.113319 0.368162
0.892572 0.111567 0.37256
0.889225 0.104676 0.375839
0.889711 0.109245 0.36685
0.887879 0.102644 0.378563
0.91729 0.111261 0.369442
0.911345 0.10748 0.364988
0.91393 0.10337 0.362379
0.910788 0.108424 0.365942
0.913604 0.105182 0.369214
0.902223 0.114582 0.376583
0.922217 0.115735 0.370254
0.934555 0.109632 0.367331
0.925476 0.107563 0.368805
0.924357 0.104741 0.371788
0.937256 0.102541 0.363761
0.935407 0.103208 0.376791
0.941348 0.101286 0.378053
0.953739 0.10852 0.371788
0.947437 0.115366 0.368199
0.953777 0.103358 0.365575
0.940897 0.112401 0.361742
0.948174 0.117898 0.366319
0.961578 0.113632 0.361739
0.977155 0.112146 0.368018
0.969797 0.11594 0.363559
0.969706 0.117784 0.369105
0.966559 0.118798 0.363717
0.962611 0.101162 0.361164
0.987212 0.115332 0.370327
0.986976 0.115189 0.377845
0.999559 0.108246 0.360648
0.988698 0.103195 0.375957
0.988684 0.100799 0.364307
0.992459 0.117177 0.365089
1.01631 0.10819 0.370373
1.01845 0.116104 0.361678
1.00721 0.119671 0.374618
1.00423 0.115009 0.364981
1.01811 0.107336 0.372683
1.00783 0.100764 0.378389
1.02022 0.114757 0.37269
1.03166 0.108464 0.366386
1.03621 0.115564 0.363412
1.02088 0.103252 0.366034
1.03786 0.105768 0.361243
1.02302 0.109317 0.369239
1.0437 0.104444 0.361579
1.05559 0.112561 0.378858
1.04943 0.115341 0.378651
1.05878 0.111229 0.365557
1.04347 0.117606 0.373214
1.05184 0.102358 0.376193
1.07843 0.105728 0.372924
1.0643 0.111358 0.361467
1.06343 0.119582 0.363339
1.06939 0.11443 0.372918
1.06802 0.1152 0.361402
1.06226 0.10598 0.367029
1.08551 0.109022 0.363274
1.08329 0.115067 0.361438
1.09565 0.101422 0.360893
1.09052 0.10105 0.365744
1.08743 0.115674 0.373088
1.09662 0.119537 0.369713
0.479796 0.125844 0.361221
0.46343 0.131313 0.375187
0.472999 0.135283 0.367039
0.462417 0.126799 0.376372
0.465834 0.127995 0.362412
0.478998 0.130682 0.363215
0.48443 0.128224 0.370423
0.488815 0.131776 0.361353
0.49686 0.131784 0.372223
0.484696 0.131334 0.370365
0.49226 0.128003 0.371191
0.484261 0.130881 0.366701
0.511237 0.138882 0.37175
0.502513 0.131325 0.364007
0.515631 0.124008 0.360565
0.509772 0.129197 0.362851
0.517957 0.135166 0.360226
0.512436 0.127934 0.378463
0.528979 0.127213 0.374578
0.536519 0.128628 0.377146
0.530682 0.130594 0.364895
0.538129 0.133529 0.377467
0.524241 0.133516 0.372359
0.531265 0.133508 0.375296
0.545103 0.131515 0.362333
0.553703 0.136852 0.372127
0.54755 0.136469 0.372831
0.543315 0.133041 0.373937
0.557039 0.136562 0.362587
0.54434 0.127079 0.368305
0.576712 0.13334 0.363371
0.572373 0.125213 0.371819
0.579025 0.135706 0.377687
0.563248 0.123353 0.377515
0.576326 0.131912 0.369371
0.578154 0.134588 0.373422
0.586562 0.137742 0.370358
0.599617 0.127772 0.375168
0.598952 0.130716 0.369572
0.583443 0.12238 0.368829
0.594702 0.12834 0.372865
0.585153 0.128975 0.377654
0.612195 0.124876 0.365653
0.603228 0.131543 0.377252
0.612777 0.126215 0.364651
0.615628 0.12799 0.368646
0.611979 0.135449 0.375864
0.611444 0.121948 0.362791
0.635562 0.120673 0.369531
0.63699 0.123132 0.368843
0.629556 0.123409 0.376761
0.639348 0.126919 0.373277
0.627571 0.131421 0.370412
0.637728 0.13641 0.361183
0.656171 0.128811 0.362472
0.655751 0.128377 0.366959
0.64885 0.125144 0.371259
0.656501 0.127218 0.365135
0.653018 0.121084 0.376417
0.648321 0.137993 0.370663
0.678746 0.124075 0.360274
0.677497 0.133259 0.379327
0.675915 0.139061 0.378748
0.671737 0.131451 0.365553
0.665473 0.137267 0.373838
0.666403 0.131957 0.376007
0.687756 0.139014 0.379079
0.685346 0.132963 0.376405
0.687056 0.128001 0.366079
0.699413 0.131246 0.368293
0.683049 0.127904 0.364191
0.684292 0.137455 0.365167
0.715811 0.128563 0.379432
0.707785 0.128678 0.362182
0.704132 0.131714 0.363427
0.705165 0.12112 0.366778
0.70247 0.130284 0.366498
0.706006 0.13104 0.369646
0.734826 0.127471 0.37401
0.723478 0.138178 0.379491
0.730933 0.129647 0.375265
0.724823 0.131935 0.377465
0.723732 0.120933 0.371729
0.738339 0.124294 0.372123
0.744075 0.133176 0.372359
0.757484 0.126752 0.366513
0.759148 0.12652 0.364102
0.747975 0.128367 0.370549
0.74533 0.139691 0.372603
0.741774 0.12864 0.373855
0.767121 0.127372 0.371392
0.769386 0.134375 0.361054
0.778548 0.126323 0.365701
0.762575 0.130895 0.367969
0.779015 0.13801 0.367991
0.768403 0.139605 0.372047
0.797744 0.128901 0.362413
0.796483 0.123785 0.366776
0.797269 0.126499 0.370417
0.795587 0.13397 0.376765
0.785439 0.134585 0.360802
0.789651 0.12779 0.366808
0.810926 0.139311 0.372143
0.81292 0.121747 0.37581
0.806348 0.126297 0.370282
0.805955 0.138414 0.377741
0.815052 0.133706 0.366977
0.803965 0.1352 0.378522
0.833822 0.132541 0.364565
0.828625 0.133327 0.376221
0.822741 0.13493 0.364883
0.828085 0.133837 0.364256
0.839296 0.131587 0.361483
0.8323 0.13712 0.379227
0.856004 0.126214 0.368356
0.840731 0.128981 0.363779
0.853578 0.132099 0.362757
0.8493 0.121946 0.378072
0.846286 0.134427 0.376794
0.849349 0.137977 0.376038
0.868746 0.136921 0.376051
0.860784 0.139411 0.372274
0.87289 0.129039 0.37146
0.864553 0.127679 0.371582
0.864576 0.12624 0.368092
0.871341 0.126449 0.371524
0.897114 0.13644 0.362864
0.897951 0.134513 0.374306
0.894223 0.120325 0.366099
0.886639 0.123992 0.369105
0.893894 0.136459 0.36237
0.891585 0.137338 0.366974
0.918963 0.125345 0.362569
0.910201 0.132905 0.36379
0.913102 0.128617 0.369545
0.90027 0.132883 0.361463
0.915939 0.13079 0.374799
0.915623 0.123117 0.371271
0.932601 0.1387 0.366906
0.935852 0.13485 0.375824
0.926233 0.137744 0.362774
0.927886 0.129134 0.377497
0.926411 0.13674 0.368906
0.923481 0.125199 0.363582
0.954508 0.138516 0.367957
0.954291 0.136477 0.364343
0.953957 0.135238 0.361218
0.949399 0.133621 0.363859
0.948964 0.132726 0.369064
0.942279 0.128081 0.363786
0.961732 0.129138 0.377663
0.964417 0.123632 0.361594
0.977332 0.133842 0.367497
0.964491 0.135196 0.365939
0.976906 0.125346 0.378393
0.9739 0.123245 0.363837
0.988488 0.122008 0.360396
0.993382 0.138273 0.363075
0.986799 0.13601 0.379041
0.9827 0.134664 0.368198
0.992003 0.126705 0.363419
0.981879 0.122482 0.37683
1.00665 0.139001 0.377934
1.01546 0.13326 0.371029
1.01732 0.133505 0.364176
1.01545 0.130358 0.371931
1.00725 0.136808 0.364837
1.0059 0.127312 0.364683
1.02322 0.120719 0.375405
1.03441 0.136396 0.37044
1.02116 0.13202 0.36518
1.02295 0.13733 0.374789
1.02624 0.126315 0.361849
1.03466 0.126399 0.378007
0.525712 0.147167 0.366375
0.525784 0.147487 0.375586
0.520991 0.140825 0.363452
0.52705 0.150554 0.365541
0.526052 0.143296 0.369577
0.539342 0.15184 0.37768
0.557948 0.148632 0.379261
0.543054 0.152701 0.375999
0.554264 0.157424 0.364086
0.547503 0.150657 0.373957
0.555327 0.151002 0.377306
0.551381 0.158804 0.377742
0.579022 0.159665 0.360237
0.576678 0.141099 0.362611
0.573117 0.142163 0.363777
0.561015 0.140902 0.360874
0.572361 0.144756 0.375086
0.578152 0.143685 0.377883
0.594929 0.156466 0.374954
0.591333 0.147482 0.371044
0.592041 0.154432 0.371832
0.59642 0.152151 0.360854
0.598299 0.140396 0.366198
0.588129 0.151244 0.361704
0.617016 0.152946 0.36178
0.609788 0.145453 0.374599
0.602479 0.145397 0.360768
0.612744 0.151803 0.363024
0.611871 0.158597 0.377309
0.605668 0.156834 0.367018
0.639498 0.157773 0.366546
0.627762 0.144482 0.367808
0.63413 0.157244 0.360499
0.624252 0.145057 0.378297
0.626142 0.154598 0.37363
0.636424 0.146127 0.378258
0.641243 0.143825 0.373527
0.653359 0.14251 0.374363
0.644206 0.148648 0.371353
0.658845 0.143245 0.370651
0.653426 0.151872 0.367532
0.646904 0.157936 0.374116
0.66369 0.147336 0.364027
0.671277 0.148517 0.373342
0.668486 0.150578 0.364999
0.662596 0.154411 0.373605
0.667262 0.157541 0.362901
0.671358 0.141313 0.367112
0.693917 0.147954 0.362665
0.68557 0.145562 0.364107
0.687456 0.14642 0.375578
0.699644 0.142992 0.372655
0.683642 0.159242 0.36305
0.685031 0.145507 0.376146
0.702347 0.153688 0.376907
0.719616 0.142735 0.363545
0.70972 0.14651 0.379176
0.718368 0.151708 0.365992
0.706542 0.140993 0.377044
0.700804 0.145902 0.371246
0.728403 0.141311 0.378831
0.724743 0.15136 0.360858
0.732043 0.148648 0.36073
0.733343 0.151366 0.371958
0.739598 0.158127 0.368105
0.737375 0.157652 0.367329
0.751218 0.145048 0.365244
0.750925 0.147038 0.360922
0.757332 0.154029 0.36957
0.7565 0.153431 0.376965
0.741279 0.146268 0.375345
0.752098 0.159669 0.364356
0.772912 0.145423 0.364151
0.770657 0.151644 0.373211
0.771453 0.152595 0.375344
0.777165 0.152419 0.366376
0.763713 0.154821 0.376695
0.761862 0.155095 0.362318
0.799642 0.154005 0.366731
0.791064 0.155271 0.37381
0.787467 0.144999 0.37862
0.798651 0.150588 0.378265
0.78075 0.155473 0.373739
0.788696 0.150898 0.362913
0.800461 0.156482 0.364628
0.80717 0.157781 0.364686
0.812868 0.140333 0.366925
0.817701 0.148852 0.365943
0.805907 0.149236 0.365918
0.818718 0.150256 0.372103
0.827086 0.159639 0.362256
0.824465 0.156514 0.378365
0.83833 0.141928 0.368219
0.827618 0.145361 0.369414
0.824325 0.143396 0.370584
0.837344 0.142569 0.369278
0.840654 0.14457 0.366804
0.841752 0.142909 0.360592
0.857932 0.143147 0.363748
0.855628 0.145451 0.374795
0.841474 0.140826 0.375503
0.848123 0.152553 0.363239
0.867492 0.146843 0.370722
0.876287 0.140343 0.361435
0.8707 0.151811 0.372059
0.874467 0.153082 0.378285
0.879169 0.154912 0.361951
0.875978 0.150326 0.379211
0.893827 0.159688 0.37531
0.882225 0.147568 0.375582
0.897839 0.141235 0.364344
0.890325 0.143597 0.366064
0.896974 0.159494 0.361321
0.899484 0.147084 0.37478
0.905908 0.155849 0.364736
0.902595 0.15585 0.370755
0.904119 0.149355 0.377863
0.905778 0.156362 0.366539
0.904073 0.152294 0.376008
0.913456 0.142417 0.376171
0.920931 0.151728 0.365233
0.92122 0.148287 0.36094
0.92795 0.146655 0.367042
0.935912 0.148688 0.371228
0.939065 0.155914 0.379769
0.92105 0.152283 0.36021
0.948975 0.145185 0.375624
0.947519 0.148145 0.370986
0.951589 0.14101 0.375248
0.944788 0.151499 0.370731
0.944983 0.149473 0.364669
0.953523 0.151531 0.373271
0.962713 0.151793 0.366336
0.966569 0.15756 0.364341
0.964295 0.159234 0.369672
0.977788 0.152657 0.378874
0.977172 0.147959 0.364869
0.971375 0.153662 0.371538
0.578385 0.178155 0.374153
0.578455 0.16581 0.379753
0.564208 0.165283 0.368125
0.578349 0.172993 0.374519
0.561989 0.171422 0.375622
0.577943 0.170596 0.362363
0.585604 0.173281 0.374476
0.582032 0.162618 0.373879
0.58542 0.160246 0.37139
0.59268 0.178109 0.376522
0.582898 0.178255 0.365925
0.584238 0.170573 0.367309
0.60039 0.164749 0.372698
0.613107 0.162967 0.369056
0.611697 0.162016 0.368441
0.614146 0.166486 0.371276
0.6142 0.176752 0.363141
0.612474 0.171643 0.371746
0.633905 0.17022 0.36502
0.626922 0.175311 0.366668
0.63575 0.171967 0.377598
0.636845 0.162272 0.375915
0.622055 0.176479 0.372511
0.624001 0.166072 0.378528
0.646663 0.160677 0.377102
0.652555 0.173382 0.362741
0.641842 0.16191 0.362259
0.645081 0.170827 0.366928
0.654238 0.1716 0.373203
0.650229 0.175148 0.364173
0.669088 0.178127 0.375245
0.664883 0.176252 0.375933
0.677853 0.166683 0.365508
0.675946 0.170955 0.368973
0.661485 0.172772 0.364808
0.674872 0.163003 0.369128
0.693551 0.165353 0.379298
0.699771 0.161443 0.363997
0.684188 0.17064 0.365257
0.69702 0.178157 0.371992
0.680897 0.175486 0.368104
0.699479 0.173108 0.378742
0.707512 0.161902 0.367719
0.700961 0.17109 0.379535
0.718951 0.165516 0.362158
0.708118 0.160376 0.363554
0.718041 0.165233 0.371187
0.712156 0.166261 0.378732
0.737702 0.170339 0.377211
0.738379 0.171633 0.378595
0.731973 0.170982 0.370676
0.723794 0.17661 0.361858
0.731835 0.164478 0.366496
0.724542 0.168997 0.375235
0.746949 0.164998 0.367498
0.747064 0.171786 0.366479
0.74321 0.163866 0.375996
0.757819 0.177483 0.36288
0.740677 0.174622 0.36448
0.744743 0.177451 0.36153
0.774083 0.1769 0.367738
0.76793 0.161129 0.366972
0.776073 0.170624 0.378939
0.770501 0.175552 0.366994
0.770321 0.179583 0.379021
0.764179 0.176856 0.368969
0.780601 0.17677 0.372994
0.790622 0.160917 0.364377
0.784816 0.169781 0.375587
0.783919 0.16257 0.364383
0.791917 0.176472 0.360532
0.793378 0.170676 0.368334
0.809736 0.177431 0.367217
0.813708 0.160495 0.376287
0.810387 0.171691 0.367467
0.813953 0.160747 0.373061
0.804724 0.168998 0.369234
0.81102 0.169632 0.367549
0.8354 0.176104 0.368519
0.829569 0.167093 0.374661
0.827693 0.16133 0.361833
0.826871 0.178081 0.362565
0.8394 0.174377 0.364574
0.832402 0.163427 0.378244
0.846521 0.167578 0.37929
0.848073 0.174172 0.361884
0.847876 0.173113 0.371414
0.849438 0.164889 0.378627
0.847599 0.178051 0.378248
0.848977 0.171231 0.369658
0.877342 0.177856 0.366833
0.877704 0.160535 0.379065
0.860798 0.160882 0.368468
0.871086 0.17521 0.37483
0.86758 0.1773 0.372396
0.870608 0.177865 0.370868
0.892689 0.174873 0.366671
0.88782 0.179302 0.368513
0.880907 0.167023 0.367589
0.892422 0.163151 0.365432
0.887843 0.17149 0.366498
0.889287 0.165398 0.36362
0.904993 0.166908 0.363614
0.916908 0.161297 0.365534
0.917179 0.162568 0.378696
0.913269 0.174655 0.362632
0.907797 0.176379 0.366094
0.906912 0.160786 0.376461
0.921891 0.169357 0.375182
0.934977 0.162124 0.363659
0.928734 0.176338 0.361556
0.927741 0.171669 0.372145
0.925913 0.170441 0.378009
0.935878 0.168612 0.378085
0.621073 0.189237 0.367031
0.624192 0.181641 0.370817
0.624891 0.182618 0.366836
0.639307 0.193415 0.377396
0.626746 0.193876 0.378446
0.638906 0.197047 0.360603
0.644336 0.182567 0.365795
0.643932 0.181504 0.36471
0.650311 0.18092 0.372545
0.640804 0.199569 0.372981
0.656512 0.184313 0.37696
0.651305 0.197263 0.37927
0.660874 0.198065 0.366727
0.664648 0.185828 0.372322
0.661378 0.197824 0.369322
0.671454 0.186055 0.377871
0.674934 0.188384 0.368348
0.678206 0.189352 0.371298
0.686172 0.184153 0.360839
0.689382 0.193118 0.375243
0.693508 0.187731 0.368811
0.698569 0.193897 0.364968
0.681765 0.18291 0.375703
0.693329 0.180534 0.36586
0.701486 0.192333 0.378624
0.711159 0.190426 0.370263
0.711274 0.19025 0.370989
0.704223 0.196522 0.367588
0.713075 0.185737 0.377173
0.719699 0.190311 0.365751
0.72063 0.193153 0.365803
0.732092 0.196709 0.368113
0.725286 0.18552 0.363077
0.728839 0.198469 0.36553
0.731473 0.184049 0.374245
0.734571 0.19912 0.36083
0.747458 0.187095 0.374528
0.741635 0.196449 0.372676
0.752971 0.198796 0.371686
0.748545 0.19847 0.375321
0.74347 0.186301 0.364896
0.753729 0.197629 0.365198
0.768009 0.194926 0.370661
0.763045 0.18928 0.360355
0.76736 0.198642 0.366518
0.764656 0.189789 0.377401
0.764246 0.193636 0.373613
0.7793 0.196491 0.368792
0.798733 0.192639 0.374
0.793018 0.181476 0.371349
0.781052 0.19166 0.372975
0.78251 0.184034 0.37701
0.787791 0.195761 0.365346
0.792639 0.184471 0.365639
0.800891 0.189376 0.378986
0.819664 0.194293 0.366936
0.816346 0.19599 0.376759
0.808337 0.19284 0.361892
0.803221 0.193575 0.368706
0.808924 0.191968 0.376344
0.825447 0.195794 0.372356
0.825921 0.198794 0.37494
0.834203 0.19851 0.375808
0.821466 0.184555 0.374096
0.82846 0.196479 0.374746
0.825323 0.184885 0.360683
0.849193 0.181682 0.36845
0.851641 0.19932 0.365564
0.847025 0.190772 0.376987
0.852878 0.183241 0.367097
0.856943 0.196972 0.361582
0.853709 0.185237 0.376534
0.877884 0.192523 0.370343
0.866019 0.185807 0.366413
0.867957 0.189329 0.371864
0.860594 0.199316 0.367433
0.865766 0.189553 0.378309
0.869365 0.191856 0.375518
0.373813 0.0547678 0.397281
0.37092 0.0539422 0.392475
0.372362 0.040686 0.389644
0.368638 0.0416941 0.396508
0.374254 0.0477023 0.395555
0.360792 0.041017 0.399173
0.392973 0.0479307 0.38826
0.381567 0.0586647 0.391046
0.39601 0.0480293 0.398684
0.395159 0.0534714 0.382113
0.399455 0.0432066 0.392029
0.393018 0.0587634 0.387358
0.401568 0.0449995 0.394833
0.41713 0.0589508 0.396957
0.407815 0.0415892 0.38652
0.419151 0.0578119 0.396211
0.414022 0.0417893 0.391006
0.401397 0.0449192 0.384596
0.436843 0.0510212 0.39294
0.420595 0.0593037 0.399355
0.423394 0.0593021 0.394843
0.434112 0.055561 0.390424
0.439267 0.0486353 0.397521
0.427096 0.0426075 0.395113
0.455365 0.0411025 0.392189
0.441506 0.0530895 0.388592
0.448546 0.0583022 0.385026
0.445514 0.0424486 0.385143
0.450956 0.0562051 0.380574
0.45212 0.0454087 0.391304
0.466554 0.0597937 0.391683
0.471684 0.0406977 0.382528
0.476631 0.0496968 0.386589
0.470735 0.0580332 0.394883
0.473778 0.0495622 0.399391
0.474626 0.0442193 0.391481
0.488522 0.0539126 0.386669
0.484221 0.058611 0.385487
0.487759 0.0422381 0.397592
0.490806 0.0502051 0.398363
0.491088 0.041658 0.394104
0.488906 0.044111 0.390264
0.507389 0.0513579 0.395591
0.501803 0.0587634 0.391554
0.514514 0.0476636 0.394661
0.507411 0.0525687 0.391368
0.514597 0.0446978 0.393473
0.511637 0.051842 0.39218
0.527814 0.0513807 0.388451
0.531071 0.0478565 0.380637
0.534199 0.0476318 0.398964
0.538992 0.0487832 0.394634
0.539539 0.0523498 0.397805
0.531707 0.0406651 0.385834
0.550625 0.0577857 0.390438
0.54832 0.0545554 0.394644
0.554072 0.0463792 0.399643
0.54402 0.0573621 0.398828
0.54128 0.0597604 0.396755
0.544744 0.0407442 0.38843
0.565 0.0516366 0.383938
0.566858 0.0465517 0.3937
0.560415 0.0586465 0.383506
0.564081 0.0546805 0.38707
0.575762 0.0526128 0.388123
0.572817 0.0553659 0.388512
0.592578 0.0482053 0.392648
0.598107 0.0573068 0.387969
0.582397 0.0456678 0.381501
0.59755 0.058074 0.391423
0.586661 0.0575802 0.393362
0.592865 0.0526485 0.38159
0.605383 0.0537046 0.380219
0.606037 0.0450648 0.399127
0.614319 0.0455141 0.387083
0.614647 0.0475289 0.394942
0.607038 0.057602 0.398572
0.607168 0.0504936 0.391711
0.628133 0.0480805 0.396832
0.638042 0.0463198 0.388703
0.621003 0.0411875 0.393906
0.628909 0.0405426 0.397007
0.626713 0.0449949 0.395563
0.62646 0.058239 0.387543
0.64895 0.0422237 0.383334
0.653273 0.0569612 0.381641
0.645472 0.0510204 0.380917
0.642785 0.0455542 0.388519
0.643615 0.0474322 0.385628
0.641791 0.0469083 0.381448
0.662037 0.0554263 0.39518
0.679783 0.0564407 0.399459
0.672943 0.0508064 0.3892
0.679753 0.0484849 0.388583
0.661152 0.0448625 0.399088
0.675251 0.0478043 0.386014
0.694495 0.0560622 0.398878
0.68607 0.0410908 0.385139
0.68583 0.0486493 0.381362
0.685608 0.0555131 0.386477
0.685145 0.0533067 0.392986
0.683303 0.0556182 0.395267
0.701818 0.0568612 0.398133
0.702698 0.0531817 0.389432
0.706712 0.0504211 0.38412
0.702514 0.0480572 0.388334
0.708077 0.0425606 0.383738
0.703542 0.0403558 0.382864
0.727344 0.0518302 0.382485
0.736871 0.0446574 0.399374
0.731874 0.0504446 0.382137
0.733442 0.0478708 0.394525
0.737278 0.0548665 0.39268
0.731627 0.047133 0.380594
0.754339 0.0484855 0.383329
0.757764 0.0463041 0.392334
0.752166 0.0577178 0.385983
0.746563 0.0476545 0.391432
0.746358 0.0594103 0.394872
0.742501 0.0450747 0.392669
0.766364 0.0582341 0.385788
0.77158 0.0553245 0.389079
0.767435 0.0528398 0.397015
0.771691 0.0523384 0.382825
0.776704 0.0595859 0.399708
0.770264 0.0512882 0.386724
0.787252 0.0566696 0.384408
0.78247 0.0584674 0.380203
0.79185 0.0558204 0.386282
0.789443 0.0580293 0.385193
0.796457 0.0554793 0.38751
0.795179 0.0538856 0.38244
0.819023 0.0423317 0.397036
0.811213 0.0454151 0.399266
0.815921 0.043163 0.385043
0.801434 0.0408943 0.386367
0.809026 0.0419356 0.38771
0.815152 0.0534351 0.385029
0.822045 0.0514183 0.392662
0.835134 0.0418123 0.38924
0.837519 0.052815 0.393209
0.827144 0.0466017 0.38184
0.824748 0.0485557 0.380916
0.833499 0.0576047 0.384078
0.846433 0.0428041 0.38151
0.851118 0.0569779 0.38304
0.858826 0.0443867 0.383566
0.857962 0.0423199 0.390363
0.84773 0.0515446 0.39177
0.841768 0.0471331 0.394941
0.878141 0.0551879 0.399532
0.872696 0.0558012 0.381541
0.862464 0.0562829 0.396407
0.863765 0.0458583 0.38617
0.875702 0.044873 0.383255
0.867049 0.0451179 0.396409
0.895379 0.0581058 0.398967
0.890541 0.0504338 0.399475
0.892866 0.0581692 0.384706
0.887739 0.0443605 0.380953
0.89814 0.0527755 0.396687
0.888768 0.0465915 0.391075
0.912861 0.0411523 0.397166
0.900233 0.0523424 0.393144
0.919328 0.0491967 0.391262
0.903049 0.042893 0.396259
0.910456 0.0524942 0.395517
0.905316 0.0565493 0.389241
0.932768 0.041934 0.397766
0.921869 0.0570248 0.386247
0.938109 0.0537859 0.39383
0.926504 0.0515286 0.384292
0.938723 0.0573201 0.382678
0.934799 0.056446 0.385728
0.94629 0.0508365 0.385363
0.952802 0.0409135 0.392394
0.957811 0.0416018 0.390881
0.94395 0.0411556 0.395276
0.946605 0.0540722 0.387492
0.948511 0.0466011 0.393781
0.975779 0.0566338 0.396512
0.969254 0.0415442 0.392903
0.972102 0.0433434 0.392276
0.960592 0.0571437 0.397751
0.9615 0.0488961 0.387873
0.969204 0.048496 0.389241
0.988817 0.0479854 0.39965
0.99473 0.0444276 0.383536
0.988617 0.0595319 0.395821
0.98515 0.0519591 0.381088
0.982952 0.0451171 0.39052
0.984025 0.0592126 0.388406
1.00783 0.0478779 0.39754
1.00839 0.0445777 0.385614
1.01166 0.058717 0.386951
1.01895 0.0581339 0.386633
1.01579 0.0529489 0.398121
1.00946 0.0403866 0.38152
1.02269 0.0518581 0.396269
1.02558 0.0424525 0.382129
1.03439 0.0482946 0.385015
1.03492 0.0516175 0.384726
1.03215 0.0432294 0.389782
1.02714 0.0587285 0.398374
1.04064 0.0486594 0.397669
1.05149 0.0446143 0.390973
1.0435 0.0402206 0.381628
1.05576 0.0471646 0.39771
1.05496 0.0540368 0.3891
1.05896 0.0509428 0.396883
1.07291 0.0491805 0.387707
1.07205 0.0466762 0.383086
1.06022 0.0489609 0.393065
1.06632 0.0511596 0.396496
1.06591 0.0528949 0.396404
1.06752 0.0523029 0.394301
1.09454 0.0454731 0.388865
1.08732 0.0561067 0.391805
1.08066 0.0580089 0.385206
1.08408 0.045494 0.382734
1.09228 0.0433674 0.393779
1.09096 0.0520868 0.391542
1.10201 0.05115 0.392981
1.11677 0.0502064 0.38465
1.10249 0.0549853 0.383515
1.11071 0.0519688 0.38472
1.10112 0.0409581 0.398483
1.10897 0.0449035 0.398081
1.13258 0.0563571 0.381724
1.13596 0.0459668 0.383145
1.12821 0.0466154 0.39071
1.13079 0.0592543 0.38243
1.13787 0.0414235 0.388269
1.12917 0.0593976 0.396815
0.301291 0.0796864 0.392254
0.317199 0.0613813 0.394385
0.301402 0.0649139 0.394892
0.312816 0.0664562 0.388967
0.312728 0.0768485 0.390968
0.315136 0.0654428 0.390374
0.336902 0.0620809 0.38287
0.33951 0.0681213 0.395935
0.337742 0.0730235 0.382441
0.3368 0.0732402 0.395118
0.334865 0.0655854 0.398648
0.337405 0.0632058 0.387379
0.355643 0.0791004 0.393059
0.356037 0.0762142 0.386441
0.341321 0.0755628 0.385936
0.358221 0.0742829 0.395125
0.345551 0.0758498 0.390839
0.356545 0.0651973 0.388306
0.374312 0.0781842 0.394952
0.369277 0.0776773 0.380621
0.371879 0.0715413 0.380795
0.366456 0.0656062 0.385613
0.368669 0.0726497 0.384344
0.368615 0.0635396 0.386492
0.392957 0.0763876 0.393656
0.389157 0.072691 0.386382
0.392535 0.0793738 0.394083
0.397642 0.06887 0.381416
0.398407 0.0782857 0.380281
0.384845 0.0794274 0.398855
0.401243 0.0670859 0.384998
0.40114 0.0654388 0.390395
0.419739 0.072053 0.39859
0.401493 0.0712288 0.397283
0.418971 0.0615505 0.390313
0.402988 0.0787822 0.391004
0.42495 0.0651536 0.398552
0.427248 0.0788456 0.393996
0.432674 0.0633528 0.380527
0.437066 0.066306 0.394493
0.429541 0.0761609 0.389456
0.432491 0.0693054 0.385243
0.440766 0.0750275 0.385434
0.454347 0.0677033 0.390677
0.458526 0.072853 0.393638
0.443954 0.0714498 0.381614
0.441646 0.0740358 0.389096
0.452089 0.0768312 0.399075
0.474634 0.0618746 0.38446
0.47036 0.0626433 0.383937
0.475677 0.0606934 0.383341
0.476596 0.0749452 0.38025
0.477482 0.0777565 0.383042
0.474609 0.0734992 0.382937
0.49931 0.064516 0.397996
0.484915 0.0646231 0.381754
0.483788 0.0681481 0.3823
0.48344 0.0625007 0.392009
0.480474 0.0685648 0.392538
0.499095 0.0788995 0.393604
0.501517 0.0726003 0.385648
0.517909 0.0609148 0.398557
0.508655 0.0797376 0.39916
0.519479 0.073881 0.382977
0.504042 0.0743553 0.393741
0.500451 0.0707349 0.382783
0.534438 0.0718989 0.397206
0.538618 0.0678371 0.396128
0.521756 0.0617451 0.396582
0.532408 0.0727868 0.388126
0.539111 0.0617072 0.391681
0.527164 0.0689518 0.388428
0.546299 0.074873 0.38337
0.540428 0.0788329 0.381266
0.546702 0.0684673 0.393299
0.551576 0.0691192 0.394076
0.550682 0.0764235 0.398519
0.55525 0.0761379 0.390205
0.575055 0.0783481 0.381891
0.561678 0.0759597 0.398412
0.568406 0.0612351 0.397896
0.562144 0.0690449 0.390566
0.567653 0.0744634 0.394365
0.573137 0.0766832 0.394757
0.580675 0.0705218 0.385541
0.584274 0.0733123 0.382321
0.586668 0.0709178 0.392048
0.59961 0.0648197 0.381935
0.599083 0.0780921 0.399517
0.584165 0.0783657 0.398308
0.613698 0.0670459 0.395196
0.618278 0.0716872 0.382039
0.618797 0.0704094 0.389169
0.61809 0.0669821 0.395767
0.607425 0.0675371 0.394235
0.611002 0.0692477 0.399622
0.626323 0.0653199 0.390691
0.627301 0.0677807 0.394996
0.626783 0.0733693 0.383131
0.632454 0.065562 0.383282
0.637301 0.0764759 0.396618
0.620308 0.0728029 0.391804
0.641743 0.0771865 0.389006
0.653227 0.0765708 0.399554
0.656302 0.061833 0.396173
0.658198 0.0782352 0.381399
0.65411 0.0634274 0.392449
0.646359 0.0751347 0.389037
0.660541 0.0676592 0.397591
0.663829 0.0777898 0.386873
0.670733 0.0635405 0.394825
0.676254 0.0792192 0.391457
0.668713 0.0769361 0.395103
0.670476 0.0691499 0.393305
0.695886 0.0717272 0.397622
0.698316 0.0743688 0.389381
0.695985 0.0726087 0.398391
0.683839 0.0766695 0.386386
0.695874 0.0719551 0.396564
0.693886 0.0611469 0.399578
0.701058 0.0740908 0.389611
0.703746 0.067497 0.380961
0.704162 0.0706062 0.38136
0.709719 0.0745182 0.387681
0.704148 0.0656152 0.380579
0.708414 0.0723961 0.38472
0.727908 0.0689604 0.387857
0.72602 0.0716247 0.382263
0.739756 0.0625846 0.398696
0.724539 0.0651392 0.397635
0.729265 0.0763578 0.385508
0.720874 0.0693759 0.385815
0.754539 0.0626714 0.384005
0.740738 0.0715935 0.396736
0.747306 0.0727682 0.391437
0.741104 0.0681102 0.386089
0.757381 0.0703138 0.383214
0.755538 0.068724 0.387712
0.765557 0.0709549 0.394946
0.769193 0.0720314 0.395022
0.771967 0.0695962 0.386459
0.77599 0.0779332 0.387988
0.776289 0.074458 0.38237
0.767054 0.0671531 0.390421
0.784833 0.0777327 0.397363
0.785704 0.0656099 0.384964
0.790665 0.0761922 0.39596
0.798364 0.075534 0.386423
0.782071 0.0744125 0.398968
0.78596 0.0690978 0.389328
0.817521 0.0677083 0.390391
0.804272 0.0711948 0.394468
0.802522 0.0603625 0.392907
0.811594 0.0631905 0.387284
0.805773 0.0629573 0.388381
0.817206 0.0739802 0.388653
0.839727 0.0688642 0.382976
0.828534 0.0724058 0.388178
0.836492 0.0797493 0.380588
0.832997 0.0705576 0.39097
0.82205 0.072459 0.380887
0.830284 0.0787037 0.389285
0.846233 0.0607703 0.395029
0.846465 0.0723752 0.399669
0.841073 0.0747347 0.386834
0.849703 0.0660493 0.398976
0.846639 0.0740315 0.382973
0.841557 0.0694706 0.38792
0.867489 0.0725453 0.380971
0.878688 0.0727371 0.388117
0.861536 0.0610964 0.395417
0.879762 0.061299 0.39559
0.879502 0.0668051 0.384463
0.876494 0.0756998 0.383443
0.894558 0.0677039 0.399403
0.88573 0.0784505 0.380505
0.882201 0.0604218 0.38067
0.899225 0.0697113 0.382039
0.899498 0.0716699 0.397773
0.899698 0.0626513 0.390842
0.908673 0.0607175 0.399676
0.900727 0.0750528 0.396657
0.914847 0.0624905 0.381194
0.917743 0.0609951 0.394592
0.905313 0.0691782 0.387127
0.90888 0.0681516 0.384144
0.937114 0.0647283 0.395319
0.935187 0.0629856 0.38944
0.93038 0.0795637 0.399166
0.937047 0.0734241 0.385953
0.939589 0.0686882 0.391644
0.926526 0.0632365 0.399022
0.957236 0.0712583 0.381399
0.957087 0.0738325 0.398674
0.940593 0.0719425 0.38538
0.957549 0.0726454 0.38955
0.956261 0.0770841 0.388081
0.952389 0.0713428 0.394743
0.972396 0.0638709 0.388154
0.960844 0.0654812 0.398837
0.978673 0.0705141 0.38304
0.972994 0.0716051 0.38353
0.978263 0.0628165 0.39658
0.971022 0.0639129 0.38326
0.982727 0.0605173 0.393672
0.980377 0.0644267 0.387084
0.992684 0.0722805 0.390967
0.98412 0.070681 0.39118
0.987711 0.0739878 0.396532
0.980431 0.0739126 0.392013
1.00646 0.0693975 0.384746
1.00188 0.0615783 0.392307
1.00114 0.0747022 0.399638
1.01574 0.0712363 0.393864
1.00371 0.0695777 0.390527
1.01217 0.0713826 0.38546
1.02524 0.0709405 0.386579
1.0241 0.073326 0.397625
1.03633 0.0663497 0.392252
1.02302 0.0728858 0.388135
1.03431 0.0658605 0.397139
1.03143 0.0651494 0.391085
1.04735 0.0788335 0.392255
1.05468 0.0787871 0.39319
1.04542 0.0652241 0.383616
1.04637 0.0784169 0.382721
1.05413 0.0686758 0.386675
1.04855 0.0767462 0.399424
1.0628 0.0694259 0.397971
1.06887 0.0605303 0.380518
1.0744 0.064867 0.392983
1.06945 0.0645668 0.395696
1.07724 0.0739703 0.381164
1.06153 0.0741816 0.398758
1.09234 0.0740733 0.383417
1.09562 0.0628815 0.382415
1.09852 0.0778723 0.397781
1.08802 0.0617563 0.392925
1.09761 0.0762571 0.396939
1.09278 0.0752488 0.396952
1.10191 0.0714372 0.389554
1.1134 0.070503 0.387246
1.11521 0.0654687 0.387561
1.10072 0.0735879 0.38638
1.11103 0.0679993 0.395914
1.11638 0.074875 0.384067
1.12886 0.0604593 0.398205
1.12225 0.0653212 0.393705
1.12634 0.0659961 0.386707
1.12331 0.0723798 0.398753
1.13546 0.070641 0.398397
1.12846 0.0765169 0.392871
1.14315 0.0733349 0.396791
1.15865 0.0766843 0.394095
1.15029 0.067024 0.387837
1.15657 0.0762559 0.396269
1.14457 0.0732854 0.391352
1.14282 0.0760362 0.395576
1.1778 0.0734417 0.394041
1.16728 0.0726674 0.396697
1.16682 0.0615266 0.383723
1.17213 0.0619546 0.388064
1.16968 0.064501 0.392464
1.16977 0.0654262 0.383395
1.19241 0.0782474 0.388072
1.19187 0.0790489 0.397003
1.19055 0.0626994 0.399
1.19079 0.073467 0.38757
1.19157 0.070618 0.393223
1.18287 0.0641077 0.389055
0.384252 0.0960651 0.380595
0.384757 0.0948202 0.399686
0.384261 0.0869762 0.388696
0.386162 0.0839516 0.387377
0.392438 0.0926404 0.382725
0.388246 0.0978803 0.394191
0.403816 0.0803646 0.385786
0.41147 0.092441 0.38628
0.403219 0.0970064 0.38766
0.411527 0.0946253 0.396068
0.405007 0.0963931 0.384074
0.41766 0.083208 0.399009
0.43493 0.0890868 0.385325
0.423687 0.0807738 0.385917
0.426871 0.0881081 0.385535
0.422817 0.0805438 0.392378
0.432699 0.0941499 0.384771
0.431927 0.0816349 0.382469
0.454592 0.0945522 0.390864
0.452815 0.0974513 0.38073
0.446607 0.0805812 0.388248
0.45585 0.0896723 0.399009
0.446485 0.0903719 0.399578
0.454015 0.096257 0.388367
0.465793 0.0814947 0.395856
0.475382 0.0825024 0.391285
0.468186 0.0815925 0.388211
0.478076 0.0851642 0.394453
0.465451 0.0860604 0.384596
0.47473 0.0833687 0.398065
0.496292 0.0826572 0.393227
0.485083 0.0956965 0.383281
0.483077 0.0884028 0.380257
0.496183 0.0844664 0.383095
0.498455 0.0806426 0.399068
0.484914 0.0832826 0.391349
0.502709 0.0805955 0.396982
0.507467 0.091231 0.395008
0.513469 0.0906721 0.387117
0.515602 0.0869135 0.387093
0.504273 0.0952247 0.384318
0.509059 0.0958785 0.397425
0.527736 0.094015 0.385385
0.538539 0.0894178 0.392889
0.530218 0.0827952 0.393573
0.531052 0.0934079 0.391651
0.534937 0.0957966 0.394937
0.523969 0.0858589 0.384129
0.551955 0.09761 0.383333
0.5579 0.0883159 0.396327
0.546665 0.0955996 0.393708
0.558855 0.0903089 0.399488
0.553732 0.0874303 0.392769
0.549304 0.0805128 0.387121
0.567332 0.0861794 0.399086
0.563359 0.0855237 0.392698
0.56401 0.085747 0.38823
0.570614 0.0881855 0.380916
0.575594 0.0838991 0.387424
0.56678 0.0950449 0.385138
0.583115 0.0883203 0.38206
0.586423 0.0974556 0.385139
0.58873 0.0867574 0.380851
0.592878 0.0846512 0.385287
0.591137 0.0896643 0.381799
0.598898 0.092804 0.392828
0.617317 0.0815869 0.399409
0.612814 0.087202 0.383677
0.60849 0.0988263 0.395361
0.615674 0.0811429 0.388459
0.60364 0.0940307 0.395088
0.619456 0.0804763 0.388186
0.621531 0.0989647 0.384675
0.633061 0.0815181 0.383043
0.628679 0.0819379 0.389061
0.629601 0.0961004 0.383268
0.62277 0.0971013 0.39182
0.625474 0.0811422 0.387678
0.642958 0.0877936 0.382922
0.643406 0.086574 0.388921
0.644659 0.0888262 0.382042
0.644993 0.0945088 0.394983
0.648607 0.0973268 0.397583
0.654646 0.0826388 0.398569
0.675876 0.0978822 0.38138
0.669233 0.0890628 0.386131
0.668387 0.0867092 0.396855
0.674195 0.0920605 0.38794
0.664666 0.0994576 0.385232
0.660394 0.087379 0.386538
0.681147 0.0811318 0.393529
0.687879 0.0987676 0.397807
0.692189 0.0865136 0.388773
0.693168 0.090587 0.394674
0.681395 0.0962444 0.399196
0.694528 0.0976044 0.387049
0.703403 0.0845867 0.398805
0.700948 0.0808413 0.395891
0.705202 0.0809212 0.393712
0.70844 0.0902829 0.391837
0.719162 0.0905034 0.394646
0.711108 0.0962673 0.393898
0.730228 0.0930492 0.39157
0.723264 0.0932539 0.383078
0.72877 0.0867034 0.394857
0.739741 0.09097 0.381611
0.734812 0.0976547 0.395523
0.73401 0.0894732 0.392783
0.756948 0.0957238 0.396603
0.749771 0.0960831 0.389121
0.747821 0.0829101 0.392723
0.741484 0.0849054 0.397677
0.742499 0.0815531 0.388358
0.750735 0.0980624 0.393203
0.766484 0.095555 0.392886
0.76531 0.0993036 0.398938
0.774506 0.081346 0.398924
0.772594 0.0835531 0.385528
0.770427 0.0952568 0.397005
0.779746 0.088761 0.386471
0.798181 0.0830593 0.389479
0.797144 0.0935451 0.389188
0.79576 0.0887817 0.39209
0.79583 0.0879843 0.396511
0.787542 0.0994521 0.38092
0.782185 0.0804518 0.39765
0.819205 0.0947528 0.39156
0.812846 0.0897071 0.388656
0.803994 0.0902735 0.392019
0.800807 0.0957651 0.385816
0.816609 0.0916024 0.382444
0.801029 0.0887116 0.383571
0.839498 0.0931909 0.390388
0.824917 0.0930519 0.38297
0.838485 0.0923247 0.39141
0.826072 0.0989015 0.383734
0.831535 0.0851444 0.392884
