ply
format ascii 1.0
element vertex 1758
property float x
property float y
property float z
end_header
0.54404 0.0707188 0.385384
0.55382 0.0675572 0.396001
0.547334 0.0718775 0.399182
0.541971 0.0638624 0.389508
0.554079 0.0674888 0.383941
0.546874 0.0610458 0.381591
0.576275 0.0774225 0.38173
0.574714 0.0633715 0.390363
0.571877 0.0615804 0.389133
0.573954 0.0632398 0.394737
0.568797 0.0713579 0.397925
0.56402 0.0610957 0.397777
0.588625 0.0656541 0.383531
0.581839 0.0734064 0.383413
0.589127 0.0651635 0.382292
0.597223 0.0618572 0.38605
0.597121 0.0775343 0.380875
0.594007 0.0781031 0.386124
0.602118 0.0664338 0.391274
0.603983 0.068698 0.389066
0.61735 0.0673185 0.381376
0.618772 0.0684588 0.383282
0.610917 0.0724986 0.386649
0.615018 0.0675278 0.398751
0.62197 0.0776577 0.381689
0.628699 0.0659906 0.38828
0.63269 0.0667747 0.397381
0.637523 0.0636173 0.387154
0.624663 0.067261 0.391913
0.620582 0.0780295 0.384523
0.658335 0.0628412 0.381091
0.659647 0.0673411 0.38757
0.652106 0.0616324 0.387618
0.64742 0.070431 0.395317
0.652317 0.0607513 0.393787
0.646668 0.0735899 0.397066
0.670589 0.0697698 0.382316
0.674646 0.06038 0.394117
0.668819 0.0630709 0.386689
0.66444 0.0748062 0.385018
0.677445 0.0631799 0.388093
0.676855 0.0726963 0.393796
0.682039 0.0780192 0.399719
0.683475 0.0771985 0.38631
0.682848 0.0727961 0.387233
0.699772 0.0773702 0.386063
0.690687 0.0751284 0.390243
0.682006 0.0647818 0.391236
0.708287 0.0704202 0.391435
0.711665 0.0678647 0.398572
0.710915 0.0779601 0.391216
0.713909 0.0613094 0.387905
0.703503 0.0630228 0.398315
0.703181 0.0725328 0.39377
0.73702 0.0797146 0.396622
0.73273 0.0711811 0.381571
0.728552 0.0616256 0.393497
0.733752 0.0607418 0.395616
0.72302 0.0777611 0.393773
0.723209 0.0687273 0.390267
0.751392 0.0789048 0.393784
0.747081 0.0665081 0.399509
0.751751 0.0633774 0.381244
0.755287 0.0796648 0.386838
0.745001 0.073327 0.382826
0.744605 0.067798 0.38729
0.760352 0.078811 0.386001
0.766864 0.0728204 0.383162
0.765191 0.0751852 0.380951
0.762691 0.0778279 0.381893
0.771891 0.0654634 0.388245
0.779726 0.0793102 0.395131
0.785288 0.0751603 0.399457
0.792497 0.0767667 0.380445
0.785216 0.06099 0.397127
0.785144 0.077916 0.396339
0.795653 0.0667335 0.380699
0.794399 0.0624875 0.392024
0.814698 0.067322 0.38285
0.803906 0.0649987 0.382539
0.811993 0.0754876 0.381203
0.813356 0.0726437 0.387086
0.811559 0.0673671 0.384572
0.813582 0.0677892 0.384421
0.823059 0.0691654 0.397445
0.828046 0.0648291 0.398779
0.827954 0.0651716 0.381711
0.828224 0.0725519 0.392614
0.833407 0.0627443 0.389393
0.825187 0.060905 0.383037
0.8403 0.0647627 0.394524
0.847532 0.0647177 0.391974
0.840855 0.071627 0.382723
0.859406 0.0775646 0.384795
0.855288 0.0609418 0.386999
0.855151 0.0722085 0.388499
0.131937 0.087943 0.387871
0.139435 0.0868377 0.384542
0.125392 0.0833066 0.38744
0.13359 0.0813655 0.384178
0.129394 0.096985 0.399793
0.130834 0.0820855 0.39526
0.149359 0.0955219 0.382161
0.145442 0.0920385 0.386556
0.141503 0.0834085 0.38418
0.14066 0.0967885 0.385396
0.155821 0.0963736 0.399205
0.147049 0.0815127 0.385784
0.177346 0.0813625 0.397626
0.160644 0.098693 0.390484
0.160493 0.0810037 0.397734
0.167046 0.0990836 0.39773
0.165899 0.0985077 0.398641
0.166149 0.0887622 0.387715
0.188867 0.0888819 0.384903
0.197122 0.092296 0.39592
0.19814 0.0913181 0.388431
0.190335 0.0995663 0.381431
0.18848 0.096284 0.386674
0.19184 0.0994798 0.390322
0.216009 0.0846388 0.392323
0.216503 0.0864157 0.381305
0.219188 0.0871846 0.393924
0.215677 0.0907408 0.39953
0.208665 0.0897968 0.391996
0.205082 0.0804479 0.390579
0.232112 0.080984 0.386013
0.238444 0.0956323 0.386566
0.234986 0.0871625 0.396854
0.225046 0.0893029 0.396246
0.220781 0.0956721 0.384101
0.239533 0.0812914 0.382801
0.251006 0.0812546 0.399354
0.255279 0.0982346 0.380343
0.255395 0.0910716 0.381525
0.250499 0.0923543 0.391798
0.251075 0.0940998 0.387383
0.259513 0.0844873 0.380479
0.265166 0.0859654 0.388257
0.261102 0.0906974 0.393883
0.274183 0.0937107 0.382837
0.2695 0.0854992 0.393405
0.278032 0.0823289 0.392486
0.278996 0.0855998 0.389719
0.285073 0.0868251 0.390859
0.295208 0.0819558 0.395132
0.2991 0.0988307 0.38668
0.296173 0.0818728 0.397521
0.298264 0.0850506 0.392649
0.299293 0.0830186 0.395523
0.311391 0.0812121 0.399167
0.30515 0.0849666 0.383752
0.307152 0.0816367 0.383835
0.303519 0.0997 0.380444
0.309125 0.0870978 0.386777
0.307998 0.0838667 0.382703
0.337837 0.0825358 0.383679
0.323262 0.0822588 0.399247
0.339039 0.08764 0.389701
0.327052 0.0861964 0.393871
0.326137 0.0956178 0.399757
0.333495 0.088101 0.388815
0.340864 0.085438 0.39885
0.357066 0.096788 0.382113
0.343964 0.0830267 0.380299
0.351853 0.0917807 0.395115
0.344869 0.0842312 0.383799
0.347226 0.0892813 0.384004
0.378841 0.0979429 0.387815
0.373856 0.0829206 0.388979
0.378354 0.0858939 0.390204
0.363332 0.0984467 0.395127
0.361615 0.085279 0.386689
0.375565 0.0849182 0.380742
0.390543 0.0938805 0.390245
0.391252 0.0983684 0.394145
0.384172 0.0975552 0.380416
0.385406 0.0878721 0.386814
0.389264 0.0967898 0.393271
0.392002 0.0958902 0.391905
0.41137 0.0940494 0.391982
0.41261 0.088177 0.397713
0.404121 0.0984156 0.386757
0.407733 0.0987692 0.388147
0.409233 0.0819494 0.383037
0.413656 0.0857869 0.399268
0.436869 0.0821403 0.384999
0.433778 0.0804407 0.38307
0.428358 0.0807235 0.385401
0.4353 0.0905773 0.382723
0.436522 0.094434 0.391388
0.434451 0.0828329 0.390829
0.446202 0.0817401 0.398085
0.45474 0.0876293 0.389384
0.454439 0.0835182 0.39473
0.458061 0.0823171 0.381683
0.441832 0.0917133 0.382646
0.458198 0.0883367 0.390563
0.473935 0.0843979 0.385517
0.466241 0.0937637 0.390723
0.466027 0.0885108 0.38193
0.47502 0.0971453 0.385624
0.469155 0.0828549 0.387816
0.472237 0.0867322 0.383371
0.491472 0.0816686 0.38183
0.498889 0.0972343 0.386809
0.496222 0.0933395 0.398415
0.499414 0.0837483 0.386652
0.493992 0.0945451 0.399714
0.491253 0.0831416 0.394433
0.513133 0.0860535 0.393539
0.517245 0.0849372 0.383999
0.507876 0.0837236 0.393984
0.500971 0.0884314 0.388676
0.519042 0.0879552 0.39213
0.508072 0.0996411 0.39142
0.535575 0.0935491 0.397052
0.525734 0.0812442 0.382747
0.536176 0.0892649 0.386036
0.526595 0.0846583 0.390821
0.527624 0.0886806 0.391613
0.536492 0.0852586 0.381499
0.557711 0.0921866 0.393487
0.553845 0.0911349 0.393212
0.555848 0.0897429 0.382725
0.544101 0.0822549 0.389224
0.549597 0.0871942 0.39561
0.556292 0.0852449 0.393852
0.573667 0.0918935 0.38711
0.565258 0.0908967 0.38859
0.579452 0.0864063 0.394832
0.573375 0.0885684 0.39871
0.569779 0.0907163 0.387831
0.562769 0.0988134 0.388751
0.591627 0.0829792 0.383539
0.592167 0.0926434 0.38834
0.587067 0.0831433 0.392229
0.58501 0.0864555 0.38377
0.588506 0.0857366 0.393205
0.58383 0.0824113 0.388022
0.615869 0.0811609 0.395341
0.611138 0.0844201 0.385565
0.60957 0.0957452 0.39082
0.603078 0.089483 0.394147
0.608052 0.0858294 0.392672
0.6005 0.0919488 0.388565
0.622168 0.0890115 0.387606
0.636181 0.0850798 0.397592
0.636608 0.0840383 0.388944
0.635203 0.098285 0.381129
0.636829 0.0987174 0.387338
0.637593 0.0841635 0.388421
0.64426 0.0979979 0.386414
0.647105 0.0857337 0.387895
0.651689 0.0958347 0.392993
0.656977 0.0846899 0.398517
0.643345 0.0823276 0.38365
0.649305 0.0851102 0.384017
0.667612 0.0816538 0.396608
0.669145 0.0940318 0.388441
0.672369 0.0904398 0.397889
0.662493 0.0855673 0.384294
0.677749 0.0961345 0.39863
0.677466 0.0835599 0.389084
0.694369 0.0987348 0.38171
0.695253 0.0988315 0.39854
0.699232 0.0929863 0.397791
0.698579 0.0936076 0.381317
0.686707 0.0819569 0.384743
0.699533 0.0955012 0.398138
0.711384 0.0982657 0.3939
0.714218 0.0904622 0.39551
0.708251 0.0813706 0.392219
0.706498 0.0992957 0.399644
0.701954 0.0875341 0.388715
0.701456 0.096141 0.384125
0.727686 0.0854795 0.389588
0.724979 0.0836317 0.388578
0.724225 0.0832771 0.395121
0.731699 0.099729 0.390213
0.7391 0.0950561 0.389231
0.732126 0.0831741 0.381393
0.752341 0.0861916 0.392538
0.740262 0.0811495 0.380922
0.740673 0.0880387 0.384518
0.745073 0.0967537 0.383658
0.75418 0.0987163 0.39342
0.742647 0.0856484 0.385395
0.766524 0.0937989 0.389343
0.763691 0.0809174 0.393641
0.763 0.0889081 0.381624
0.776197 0.091662 0.384297
0.770378 0.0924953 0.384578
0.768095 0.0951701 0.386498
0.797263 0.0890406 0.385453
0.798318 0.0840031 0.398876
0.790925 0.0816264 0.38136
0.787646 0.0829264 0.384564
0.797923 0.0913891 0.389251
0.79952 0.0833598 0.387828
0.817342 0.0861815 0.384415
0.803912 0.0860676 0.395117
0.818975 0.0802218 0.395635
0.805903 0.0885461 0.394787
0.804748 0.0929262 0.382291
0.80876 0.0990483 0.38925
0.827465 0.0948019 0.385193
0.836964 0.0887051 0.396106
0.832778 0.0981771 0.387625
0.832697 0.0923279 0.386247
0.822982 0.0833592 0.399623
0.822017 0.0866049 0.384007
0.847487 0.0894615 0.380869
0.855373 0.0882973 0.386246
0.853774 0.0845488 0.388431
0.855178 0.0964507 0.380778
0.84528 0.0964421 0.380291
0.855847 0.0912044 0.389539
0.863273 0.0864488 0.38733
0.874649 0.0965631 0.383717
0.861924 0.0839328 0.381078
0.87435 0.087796 0.389511
0.867461 0.0857718 0.386473
0.86044 0.0847818 0.395394
0.110505 0.105182 0.393871
0.101149 0.112509 0.38201
0.101582 0.119335 0.381553
0.118496 0.104593 0.398935
0.102572 0.113331 0.393333
0.103664 0.10896 0.393039
0.137608 0.110939 0.393638
0.136498 0.109705 0.386713
0.128546 0.116561 0.38912
0.130574 0.117152 0.397418
0.123328 0.108718 0.38699
0.12937 0.108071 0.391429
0.146246 0.116894 0.381044
0.140981 0.102576 0.385934
0.141333 0.107136 0.396796
0.14371 0.10219 0.397937
0.159674 0.100214 0.387635
0.156129 0.101163 0.386446
0.163996 0.115158 0.397812
0.169618 0.106857 0.39749
0.178455 0.104506 0.395005
0.171896 0.113838 0.393186
0.170477 0.11976 0.389493
0.16527 0.116986 0.380913
0.180939 0.111061 0.382268
0.195782 0.114824 0.383113
0.182137 0.11162 0.385467
0.1826 0.104597 0.381788
0.180267 0.109326 0.394311
0.193588 0.108253 0.398344
0.201875 0.103494 0.398641
0.21813 0.107246 0.381732
0.210756 0.119158 0.383801
0.205967 0.108438 0.397271
0.21635 0.101553 0.391382
0.203884 0.119114 0.386472
0.222932 0.111741 0.384681
0.227352 0.119486 0.385659
0.23105 0.109243 0.397868
0.232706 0.110613 0.382459
0.233092 0.109414 0.385954
0.222377 0.10276 0.386062
0.249641 0.110778 0.395943
0.254536 0.107331 0.389476
0.240971 0.104281 0.393242
0.25279 0.110467 0.397071
0.258247 0.110391 0.39385
0.24629 0.107926 0.394604
0.261252 0.110911 0.382056
0.265244 0.117536 0.39413
0.26855 0.11872 0.388086
0.266606 0.112356 0.394587
0.262743 0.112622 0.381878
0.273507 0.109427 0.396496
0.291951 0.11329 0.380894
0.287629 0.116227 0.383174
0.28504 0.112451 0.38249
0.283813 0.105016 0.393239
0.295309 0.106809 0.38295
0.286969 0.112506 0.386237
0.312579 0.100587 0.391543
0.317255 0.119072 0.393793
0.30513 0.115216 0.386223
0.308162 0.103109 0.393352
0.310617 0.117102 0.394684
0.308647 0.105298 0.390516
0.331924 0.110496 0.393726
0.327839 0.115009 0.382312
0.325564 0.107835 0.38785
0.330384 0.110968 0.385732
0.337068 0.102319 0.39638
0.334771 0.105041 0.381697
0.342182 0.101968 0.397873
0.345216 0.11169 0.392191
0.353012 0.11961 0.384322
0.341732 0.104648 0.385091
0.35864 0.104676 0.382825
0.345096 0.113568 0.382446
0.374649 0.110641 0.392276
0.375142 0.113226 0.387857
0.370831 0.114206 0.38772
0.371732 0.115664 0.396384
0.366253 0.118724 0.392701
0.367513 0.109497 0.393786
0.394338 0.109242 0.394275
0.394191 0.102541 0.385224
0.39145 0.104845 0.384938
0.383859 0.112552 0.380895
0.39406 0.113595 0.39363
0.390859 0.114457 0.393656
0.403835 0.110482 0.393067
0.41825 0.112567 0.383572
0.409421 0.112701 0.380221
0.401258 0.115607 0.385962
0.416625 0.100288 0.386559
0.401019 0.104872 0.389527
0.431597 0.103057 0.396885
0.434906 0.100913 0.387198
0.420984 0.109272 0.388443
0.430868 0.118503 0.399128
0.434119 0.117472 0.380725
0.429377 0.116417 0.399185
0.450542 0.102534 0.389527
0.44467 0.113258 0.38545
0.446471 0.110702 0.381696
0.445917 0.11595 0.393026
0.450738 0.113471 0.394119
0.450783 0.104858 0.399267
0.461517 0.10344 0.393649
0.465363 0.111391 0.383595
0.469711 0.114457 0.398482
0.466111 0.112095 0.385597
0.472579 0.104333 0.382609
0.479366 0.112888 0.386854
0.494183 0.105393 0.396348
0.495541 0.112165 0.393856
0.486602 0.106082 0.392082
0.485451 0.118884 0.39022
0.488654 0.118872 0.389794
0.494358 0.115166 0.383301
0.50355 0.107238 0.392644
0.50636 0.11755 0.391989
0.517206 0.114006 0.38603
0.518256 0.104538 0.381693
0.511936 0.10529 0.385725
0.506542 0.102837 0.386923
0.528342 0.116255 0.389263
0.534039 0.105696 0.381705
0.533278 0.109593 0.399241
0.521137 0.109608 0.386522
0.520736 0.114671 0.395219
0.523561 0.103055 0.387482
0.557423 0.113969 0.391969
0.556684 0.106544 0.397586
0.548208 0.108398 0.386997
0.557607 0.115812 0.386485
0.545247 0.115414 0.398799
0.544387 0.116886 0.387175
0.564221 0.106579 0.381842
0.572529 0.10913 0.388636
0.575125 0.107673 0.389324
0.566682 0.114377 0.385335
0.564413 0.102831 0.389255
0.57206 0.109694 0.380556
0.592816 0.103204 0.383734
0.596781 0.111207 0.386959
0.595692 0.111753 0.380885
0.59381 0.105846 0.397342
0.596241 0.105766 0.389051
0.591462 0.103673 0.398198
0.618378 0.112318 0.392156
0.618048 0.103759 0.382493
0.601491 0.102637 0.381537
0.603306 0.101218 0.398319
0.608703 0.118084 0.39118
0.600797 0.113843 0.3996
0.636068 0.108457 0.381787
0.625531 0.109082 0.39955
0.623652 0.104834 0.38139
0.635876 0.118002 0.38905
0.627105 0.11674 0.393225
0.634515 0.100631 0.381253
0.641552 0.113798 0.393617
0.657687 0.113277 0.380229
0.654024 0.115588 0.384579
0.642356 0.110489 0.381558
0.647364 0.113838 0.386707
0.655056 0.103914 0.385998
0.670666 0.107595 0.397853
0.663194 0.102587 0.38334
0.675463 0.100723 0.383003
0.663586 0.102578 0.38523
0.673576 0.108441 0.390382
0.668096 0.103711 0.382857
0.69123 0.116276 0.397685
0.690533 0.105087 0.382089
0.687816 0.104284 0.397376
0.694902 0.119277 0.395432
0.697845 0.112316 0.383036
0.685254 0.107732 0.391683
0.715988 0.103405 0.38518
0.716685 0.103777 0.397522
0.707486 0.106965 0.397014
0.71491 0.11715 0.395169
0.708228 0.101262 0.3969
0.703764 0.101033 0.384915
0.727839 0.113121 0.398177
0.721096 0.113167 0.393111
0.721564 0.105573 0.389126
0.728126 0.103366 0.386161
0.721167 0.119642 0.395906
0.72211 0.116114 0.396189
0.755132 0.116223 0.384272
0.744676 0.105687 0.398856
0.748901 0.117632 0.39129
0.757604 0.10872 0.381
0.74567 0.115111 0.382202
0.750421 0.114913 0.388596
0.764253 0.115078 0.386532
0.761608 0.111347 0.396004
0.761939 0.10276 0.399537
0.772153 0.109589 0.380723
0.777309 0.111491 0.394555
0.768617 0.112625 0.384332
0.797415 0.108774 0.397216
0.799441 0.103852 0.396641
0.784748 0.106707 0.385375
0.797792 0.113711 0.397194
0.78091 0.111633 0.395467
0.782283 0.100894 0.381234
0.800742 0.104678 0.394149
0.818238 0.107847 0.388229
0.801723 0.117748 0.385188
0.819348 0.111914 0.3967
0.814008 0.10112 0.381167
0.813521 0.108405 0.397158
0.831208 0.107457 0.393977
0.836782 0.105988 0.398422
0.835244 0.104818 0.393018
0.832167 0.103492 0.386066
0.835773 0.119034 0.390249
0.835754 0.11689 0.383313
0.856428 0.113144 0.390834
0.859297 0.108533 0.399053
0.844661 0.118999 0.39574
0.85584 0.107192 0.3885
0.842632 0.113607 0.380629
0.859418 0.102623 0.397876
0.867181 0.111051 0.385123
0.875103 0.112646 0.394578
0.861377 0.112535 0.392661
0.87628 0.104771 0.387135
0.865061 0.103667 0.380721
0.865408 0.116729 0.380822
0.891252 0.115305 0.387904
0.893539 0.107153 0.382707
0.880499 0.118089 0.388941
0.889396 0.110351 0.387593
0.887589 0.119606 0.381342
0.897801 0.118424 0.391528
0.083726 0.12056 0.387037
0.0983542 0.122761 0.399314
0.0850656 0.138339 0.395963
0.0888036 0.12155 0.399189
0.0883975 0.130772 0.393527
0.0855959 0.12503 0.391165
0.114997 0.13777 0.393572
0.109548 0.134122 0.380493
0.118922 0.129654 0.398942
0.103886 0.125917 0.394989
0.106484 0.128389 0.382982
0.110395 0.138118 0.380412
0.121559 0.122645 0.395795
0.120629 0.125484 0.393204
0.138517 0.13734 0.383702
0.124978 0.139734 0.385045
0.13698 0.132291 0.389407
0.120286 0.129141 0.387858
0.144977 0.121996 0.388564
0.157345 0.136109 0.394475
0.157374 0.12036 0.382733
0.146545 0.135794 0.398345
0.151813 0.125702 0.381657
0.153997 0.127423 0.384133
0.163941 0.137076 0.382017
0.164066 0.124837 0.398981
0.177574 0.129035 0.38895
0.160611 0.139324 0.387463
0.171392 0.137119 0.397247
0.16767 0.125652 0.397555
0.194411 0.123501 0.394842
0.194992 0.123138 0.398048
0.194621 0.127434 0.39094
0.185043 0.136897 0.395514
0.193812 0.127991 0.392995
0.189614 0.125687 0.381475
0.218256 0.127826 0.392186
0.20277 0.123161 0.397542
0.206768 0.12094 0.393718
0.216531 0.121382 0.395634
0.214079 0.13627 0.384527
0.210427 0.13473 0.388914
0.231948 0.122424 0.383559
0.22424 0.12921 0.38636
0.236624 0.123437 0.389136
0.238758 0.135487 0.390942
0.227179 0.124373 0.396713
0.235167 0.126219 0.389482
0.255539 0.13917 0.396948
0.252311 0.133877 0.391778
0.252052 0.128081 0.380405
0.240971 0.139048 0.397184
0.251342 0.139741 0.381669
0.255233 0.134477 0.396086
0.263429 0.133711 0.386276
0.274305 0.124986 0.383737
0.264859 0.127685 0.382174
0.271323 0.124832 0.394095
0.276338 0.137382 0.393291
0.272461 0.137876 0.38254
0.292703 0.137968 0.386347
0.29765 0.12296 0.388471
0.288823 0.12584 0.386868
0.283103 0.134211 0.39257
0.29205 0.13529 0.398788
0.285653 0.13539 0.386335
0.309289 0.125987 0.393815
0.313866 0.125734 0.396442
0.316906 0.138411 0.381929
0.316906 0.13215 0.382401
0.311608 0.124365 0.399377
0.305482 0.127338 0.389538
0.326048 0.126617 0.381545
0.334863 0.134343 0.382006
0.327542 0.123605 0.384629
0.327122 0.132107 0.392265
0.335264 0.135424 0.382608
0.336655 0.12728 0.397326
0.352711 0.124931 0.390639
0.354057 0.122686 0.393842
0.352626 0.136775 0.389432
0.344192 0.133241 0.380594
0.341179 0.13164 0.390524
0.359601 0.135683 0.391936
0.36417 0.121946 0.393853
0.361293 0.121599 0.388189
0.377682 0.129791 0.390465
0.363051 0.126353 0.394335
0.369098 0.127974 0.392256
0.379753 0.121549 0.383002
0.389256 0.127928 0.384444
0.397001 0.126389 0.38779
0.383957 0.13525 0.386917
0.394638 0.123183 0.397654
0.395668 0.136127 0.395222
0.387638 0.134235 0.399413
0.419099 0.131265 0.393723
0.402395 0.1309 0.387737
0.417953 0.139106 0.398793
0.408985 0.138796 0.389141
0.416579 0.126168 0.397851
0.404162 0.12326 0.387011
0.423128 0.127387 0.393569
0.438847 0.135088 0.385072
0.422495 0.123566 0.399334
0.439088 0.120804 0.396933
0.42796 0.136166 0.396735
0.421829 0.120461 0.392748
0.45706 0.138376 0.392171
0.448814 0.131716 0.397106
0.446248 0.1235 0.387315
0.443439 0.127802 0.394453
0.441307 0.135637 0.383858
0.450983 0.13473 0.399498
0.477129 0.131907 0.382645
0.463141 0.122808 0.392684
0.469099 0.133935 0.39918
0.463887 0.123827 0.382914
0.464609 0.129489 0.386838
0.467969 0.123108 0.384299
0.494849 0.134074 0.397182
0.483885 0.124905 0.397341
0.496735 0.125109 0.386477
0.496968 0.127556 0.394822
0.493476 0.133226 0.394726
0.484407 0.121033 0.3924
0.510475 0.127399 0.398261
0.503172 0.128527 0.398314
0.506844 0.120306 0.395664
0.512118 0.120628 0.382253
0.505946 0.128743 0.38059
0.512238 0.124688 0.393638
0.53442 0.125373 0.389453
0.528631 0.1358 0.388194
0.53515 0.132645 0.38687
0.530307 0.120998 0.390547
0.537904 0.120524 0.380781
0.520305 0.132728 0.396492
0.543635 0.126474 0.398785
0.543515 0.131543 0.390972
0.541832 0.13302 0.381803
0.547082 0.120809 0.394228
0.551776 0.13178 0.391355
0.546742 0.13395 0.391365
0.574651 0.137518 0.384284
0.579164 0.128918 0.398993
0.571894 0.124571 0.399395
0.560226 0.13709 0.391868
0.577966 0.138706 0.380602
0.574886 0.125039 0.397081
0.596034 0.13946 0.386384
0.594598 0.122784 0.393123
0.591999 0.134918 0.382203
0.584039 0.132729 0.388941
0.580743 0.136192 0.397326
0.597368 0.129034 0.388742
0.607226 0.126837 0.397698
0.601191 0.133483 0.394118
0.604238 0.127717 0.398719
0.604546 0.12308 0.383945
0.611605 0.137815 0.381986
0.610828 0.126884 0.395353
0.630564 0.136614 0.395085
0.626885 0.138038 0.396949
0.634428 0.138518 0.394389
0.629474 0.122701 0.386605
0.631192 0.125257 0.390329
0.631673 0.1241 0.383035
0.652752 0.13572 0.393111
0.657231 0.122648 0.385129
0.658714 0.137886 0.392355
0.650295 0.129434 0.390796
0.655008 0.131745 0.394962
0.657886 0.121649 0.399286
0.66113 0.126479 0.395461
0.663043 0.122496 0.397728
0.672205 0.122314 0.384784
0.661782 0.1397 0.383164
0.674348 0.13393 0.384419
0.667359 0.123314 0.384825
0.684139 0.135306 0.395569
0.693297 0.139073 0.385826
0.689538 0.135999 0.387329
0.690391 0.123661 0.388231
0.692066 0.120691 0.397906
0.694792 0.131003 0.388992
0.704602 0.12573 0.38772
0.702038 0.130734 0.387216
0.714858 0.125735 0.393347
0.708484 0.127119 0.380361
0.714708 0.126776 0.387642
0.702969 0.135274 0.397527
0.72644 0.132932 0.398546
0.739086 0.126733 0.389747
0.739465 0.12172 0.386771
0.729792 0.122583 0.3908
0.729651 0.122988 0.388505
0.725612 0.132774 0.384526
0.748592 0.13548 0.396579
0.745796 0.133335 0.395512
0.740802 0.138901 0.388197
0.753222 0.1344 0.391439
0.755905 0.134547 0.388221
0.75911 0.122993 0.386186
0.772416 0.13044 0.395518
0.767299 0.138346 0.391643
0.776934 0.138917 0.38505
0.764706 0.135096 0.396245
0.764032 0.12052 0.391325
0.776632 0.128983 0.38571
0.787763 0.122108 0.388456
0.780403 0.126854 0.383589
0.786211 0.133923 0.383622
0.783503 0.139559 0.394924
0.785716 0.139483 0.395313
0.780938 0.120471 0.382369
0.808897 0.135158 0.380925
0.805863 0.12855 0.386844
0.81356 0.130322 0.395236
0.81394 0.131808 0.390387
0.808385 0.126464 0.396452
0.813556 0.137184 0.381561
0.831514 0.133186 0.380647
0.832317 0.139283 0.399758
0.834542 0.134318 0.382235
0.838343 0.131245 0.386733
0.830486 0.137206 0.396163
0.82449 0.129586 0.392773
0.846606 0.128994 0.391428
0.85075 0.131151 0.399539
0.841033 0.124418 0.398961
0.852113 0.130679 0.399593
0.852821 0.123834 0.392781
0.848757 0.139297 0.394664
0.879785 0.126888 0.382856
0.874871 0.135225 0.391534
0.865301 0.127162 0.384863
0.872446 0.122489 0.397068
0.874669 0.126276 0.395185
0.876805 0.138313 0.395913
0.880625 0.138686 0.385278
0.889474 0.129777 0.382835
0.881614 0.137955 0.398674
0.899753 0.124259 0.394277
0.89101 0.138308 0.395374
0.890882 0.127735 0.395812
0.910686 0.121923 0.388472
0.916026 0.139648 0.380443
0.907629 0.124216 0.381265
0.9155 0.131844 0.392665
0.900884 0.123378 0.393064
0.911671 0.138047 0.38139
0.098795 0.152655 0.387822
0.0805174 0.148351 0.388606
0.0961314 0.143794 0.390966
0.0921317 0.150264 0.397879
0.0815939 0.150858 0.391712
0.0829274 0.157921 0.390361
0.102651 0.146587 0.396372
0.100697 0.143739 0.386231
0.100948 0.150321 0.388771
0.111628 0.143077 0.387751
0.119229 0.157564 0.395007
0.10041 0.149478 0.394338
0.123747 0.151035 0.383222
0.134272 0.155131 0.38171
0.130679 0.159604 0.38903
0.130398 0.147851 0.386883
0.137362 0.147828 0.394261
0.120976 0.147861 0.396797
0.155046 0.143084 0.399249
0.146326 0.157379 0.398383
0.150424 0.156666 0.396211
0.147206 0.157371 0.383877
0.145405 0.146191 0.393924
0.145863 0.156072 0.384445
0.173508 0.147691 0.386159
0.177193 0.144405 0.39823
0.178926 0.159337 0.397789
0.164675 0.156657 0.382236
0.174422 0.150902 0.399677
0.171796 0.153401 0.397527
0.191474 0.144989 0.396471
0.193303 0.149642 0.381518
0.197069 0.154491 0.387921
0.18443 0.152809 0.391712
0.187199 0.144972 0.398793
0.190337 0.144658 0.397261
0.20297 0.157136 0.397705
0.207806 0.157178 0.390645
0.211332 0.148003 0.391252
0.205814 0.157343 0.386627
0.212579 0.140413 0.392593
0.215932 0.149294 0.393956
0.233266 0.149399 0.38813
0.222584 0.154479 0.387958
0.223066 0.147206 0.383616
0.235265 0.154515 0.383834
0.232129 0.156522 0.396714
0.2275 0.151058 0.394741
0.259283 0.14181 0.392405
0.253314 0.15706 0.394402
0.254141 0.14526 0.38949
0.253878 0.15488 0.391679
0.245237 0.155326 0.388355
0.257335 0.154367 0.387189
0.268296 0.155544 0.38335
0.277815 0.14871 0.383256
0.266886 0.14771 0.395112
0.264232 0.141862 0.397361
0.275833 0.148804 0.393022
0.26782 0.144311 0.388465
0.292892 0.158296 0.387372
0.280245 0.144107 0.383511
0.293557 0.151707 0.391779
0.288715 0.142354 0.392526
0.286198 0.157344 0.398122
0.297939 0.142694 0.395953
0.317964 0.141911 0.393644
0.318784 0.140915 0.396516
0.308383 0.140997 0.399227
0.316432 0.155527 0.387261
0.304301 0.157541 0.392752
0.304933 0.154852 0.395907
0.337033 0.158843 0.394229
0.324019 0.155585 0.383368
0.334976 0.156937 0.385497
0.330707 0.143503 0.388822
0.33918 0.15142 0.39559
0.336766 0.143891 0.38366
0.342093 0.144757 0.392574
0.356656 0.159398 0.387277
0.348688 0.153568 0.39679
0.346492 0.144885 0.39361
0.348143 0.142328 0.394532
0.345452 0.142329 0.396363
0.365307 0.142364 0.380655
0.379155 0.140575 0.390597
0.365247 0.14688 0.399626
0.370514 0.155436 0.387669
0.363204 0.144291 0.394675
0.37383 0.156667 0.380769
0.392641 0.143287 0.383323
0.392702 0.156487 0.39565
0.395725 0.152791 0.385659
0.393371 0.149265 0.39692
0.393659 0.143535 0.382149
0.392527 0.151058 0.383247
0.40213 0.159148 0.393056
0.406059 0.152943 0.396716
0.412323 0.150386 0.392623
0.414782 0.158515 0.390217
0.417868 0.147768 0.384719
0.412932 0.144516 0.391168
0.424936 0.145612 0.387296
0.439465 0.141566 0.382021
0.42764 0.142529 0.399142
0.422814 0.143553 0.389584
0.431943 0.150385 0.390526
0.42147 0.15563 0.399259
0.455241 0.155208 0.393841
0.440215 0.154089 0.399175
0.452613 0.15422 0.381671
0.451145 0.152147 0.39953
0.451142 0.142335 0.387405
0.444565 0.144578 0.382936
0.466984 0.149726 0.387988
0.463188 0.14446 0.383328
0.477439 0.15946 0.383009
0.470742 0.15175 0.38291
0.463317 0.149154 0.396541
0.468851 0.153592 0.393296
0.480586 0.147746 0.395912
0.494404 0.146752 0.384347
0.489576 0.152832 0.387058
0.483507 0.146406 0.388502
0.485581 0.14619 0.380429
0.490408 0.152848 0.387593
0.50891 0.147666 0.385017
0.511693 0.147777 0.38972
0.518572 0.141495 0.387228
0.510906 0.156884 0.395866
0.506393 0.150941 0.388172
0.505323 0.140797 0.395268
0.530911 0.158899 0.384428
0.52848 0.156042 0.391677
0.523577 0.144062 0.396434
0.533461 0.153319 0.381341
0.53257 0.140314 0.381224
0.530725 0.1451 0.39495
0.559108 0.158605 0.39036
0.557886 0.142535 0.3848
0.554673 0.154054 0.391035
0.547012 0.149406 0.385284
0.544422 0.149436 0.392745
0.550906 0.147158 0.381135
0.571583 0.140647 0.382371
0.576763 0.151666 0.389083
0.572491 0.151947 0.383921
0.573704 0.142625 0.38023
0.564909 0.15584 0.39462
0.578126 0.14483 0.39256
0.586498 0.153843 0.383634
0.596909 0.146496 0.393118
0.597715 0.145026 0.380349
0.584976 0.1517 0.393571
0.594629 0.142569 0.384572
0.598174 0.155487 0.388771
0.601883 0.143297 0.380341
0.609508 0.148716 0.39818
0.614704 0.149589 0.392177
0.602186 0.155317 0.398967
0.60932 0.151865 0.392428
0.617873 0.152269 0.398269
0.623802 0.140969 0.399136
0.62738 0.151926 0.390472
0.626267 0.154733 0.389033
0.62297 0.144235 0.397055
0.632512 0.141909 0.386466
0.628598 0.149468 0.380499
0.645358 0.146467 0.392673
0.654269 0.14164 0.392608
0.652609 0.154052 0.384036
0.658752 0.158098 0.39941
0.648866 0.142241 0.388964
0.652212 0.159427 0.382233
0.675284 0.148093 0.386994
0.665964 0.140758 0.390935
0.661958 0.154805 0.396897
0.673039 0.152809 0.389782
0.670229 0.147462 0.389776
0.676018 0.148854 0.382612
0.683358 0.143581 0.393693
0.692701 0.154881 0.383771
0.681755 0.152442 0.397097
0.690827 0.15714 0.384192
0.680756 0.142613 0.380723
0.681773 0.141771 0.384751
0.716166 0.148271 0.381874
0.702993 0.142578 0.394712
0.70662 0.142999 0.399639
0.701186 0.156792 0.38342
0.700904 0.153617 0.392723
0.712611 0.153451 0.380853
0.734867 0.156792 0.387346
0.724105 0.157487 0.385825
0.738591 0.159307 0.385596
0.736475 0.154339 0.389658
0.734054 0.147391 0.396658
0.721674 0.154126 0.382352
0.748777 0.144273 0.381953
0.75322 0.157713 0.394726
0.755098 0.157693 0.389289
0.758334 0.148817 0.384893
0.741303 0.146735 0.398501
0.749346 0.142607 0.389344
0.774646 0.155498 0.397938
0.763688 0.145117 0.388145
0.777719 0.148159 0.395087
0.768328 0.152227 0.393319
0.779517 0.142301 0.39354
0.765463 0.155123 0.387004
0.794368 0.148011 0.39521
0.79617 0.148708 0.387543
0.799013 0.157928 0.389236
0.798514 0.153984 0.381862
0.794718 0.142795 0.385743
0.791957 0.15946 0.386891
0.804916 0.144906 0.392687
0.803158 0.14311 0.383047
0.801035 0.141484 0.394399
0.810485 0.145262 0.384906
0.815023 0.143149 0.389128
0.806056 0.14155 0.383794
0.82242 0.15417 0.383184
0.834912 0.148329 0.388056
0.827567 0.142092 0.394344
0.833705 0.141527 0.399794
0.827814 0.154831 0.397184
0.821716 0.154128 0.392864
0.841375 0.145807 0.390862
0.844018 0.153473 0.389067
0.856188 0.150833 0.386779
0.851969 0.144831 0.399115
0.850832 0.159723 0.381876
0.842106 0.151155 0.398368
0.864892 0.142917 0.38401
0.873164 0.154456 0.393359
0.861232 0.148752 0.395043
0.870257 0.155994 0.398739
0.862855 0.155671 0.389391
0.873788 0.143228 0.384079
0.888964 0.152901 0.387749
0.899512 0.146462 0.38048
0.880289 0.156433 0.38043
0.897854 0.148114 0.384153
0.899037 0.154667 0.385807
0.896289 0.149309 0.384064
0.90543 0.159225 0.386314
0.918486 0.144559 0.397185
0.915868 0.150702 0.394281
0.919375 0.140622 0.398074
0.908968 0.1488 0.385305
0.908454 0.145425 0.384311
0.221599 0.03179 0.403098
0.235673 0.0371305 0.412248
0.220613 0.0305479 0.409212
0.224525 0.0268351 0.415666
0.224375 0.037786 0.40357
0.228711 0.0220478 0.406753
0.25397 0.0266133 0.416077
0.254922 0.024623 0.4151
0.253955 0.0295082 0.406098
0.248817 0.0349479 0.415077
0.243658 0.0285074 0.418021
0.254975 0.026471 0.413119
0.276635 0.0395229 0.402963
0.269795 0.0333414 0.403901
0.260973 0.0202356 0.418471
0.277488 0.0255568 0.413646
0.268949 0.0303562 0.417302
0.271506 0.0353727 0.406115
0.298513 0.0326218 0.412354
0.28655 0.0329133 0.415088
0.283721 0.0345403 0.419428
0.294592 0.0274901 0.40448
0.28713 0.0348519 0.413711
0.299698 0.0326971 0.41449
0.311576 0.0384176 0.403268
0.30199 0.0387925 0.410836
0.313208 0.0249757 0.401792
0.307419 0.0317201 0.405001
0.303871 0.025314 0.410808
0.301409 0.0216973 0.403057
0.334756 0.026246 0.418084
0.327935 0.0206227 0.406658
0.32772 0.031658 0.41968
0.328753 0.0355161 0.404767
0.324363 0.0231353 0.417574
0.337195 0.0326338 0.412716
0.351784 0.033011 0.400403
0.34286 0.0218175 0.416761
0.357675 0.025529 0.412445
0.345107 0.0325421 0.419068
0.340438 0.0203792 0.409044
0.34465 0.0206743 0.402399
0.363991 0.0389729 0.403864
0.374588 0.0332896 0.400552
0.37952 0.0304871 0.406511
0.36831 0.0320705 0.403843
0.366085 0.0311892 0.414001
0.364664 0.0225987 0.4015
0.394554 0.0335069 0.402222
0.382967 0.0322333 0.410901
0.381527 0.0377922 0.40761
0.385255 0.0362797 0.403655
0.398141 0.0293721 0.408346
0.392509 0.030241 0.411978
0.402451 0.0315736 0.405042
0.409042 0.0203526 0.40964
0.414028 0.032343 0.414737
0.40577 0.0337261 0.403471
0.419378 0.0234379 0.413273
0.406956 0.0394796 0.403387
0.425829 0.0306628 0.40733
0.424548 0.0390255 0.418131
0.430562 0.0248588 0.404123
0.436929 0.0310083 0.410663
0.421226 0.0339168 0.41477
0.431509 0.0211008 0.404112
0.459524 0.0348489 0.412405
0.444539 0.037758 0.404163
0.44022 0.0287247 0.418733
0.447786 0.0297316 0.405646
0.44922 0.0393281 0.414897
0.455065 0.0207246 0.401039
0.460763 0.0391814 0.401204
0.46489 0.0257642 0.410894
0.462239 0.0208203 0.417933
0.472196 0.0240837 0.404967
0.4739 0.0231914 0.412643
0.47384 0.0341532 0.418896
0.482374 0.0312655 0.419231
0.488736 0.0392519 0.410406
0.489444 0.0347101 0.402695
0.490677 0.0255589 0.402762
0.496185 0.0397676 0.402737
0.488619 0.0261425 0.40876
0.518594 0.0271642 0.401045
0.506585 0.0244345 0.404771
0.504037 0.0297353 0.40913
0.505557 0.0368914 0.41204
0.513701 0.0349133 0.415747
0.511701 0.0266854 0.401978
0.524785 0.0389897 0.401667
0.522669 0.037695 0.412991
0.531059 0.0292365 0.416274
0.525367 0.0265662 0.408468
0.521242 0.0247362 0.401949
0.527735 0.0282177 0.402439
0.540626 0.0340134 0.400933
0.551345 0.0337606 0.400439
0.558974 0.0206235 0.406126
0.541465 0.0249194 0.415602
0.552335 0.0369648 0.413526
0.54804 0.0287854 0.416394
0.577964 0.0353307 0.404902
0.563534 0.0347291 0.407403
0.562592 0.0259234 0.414189
0.574591 0.0336865 0.414232
0.575077 0.0233281 0.413977
0.572897 0.0248353 0.406777
0.593313 0.0212673 0.407898
0.587719 0.0284534 0.405784
0.59664 0.026984 0.416138
0.599302 0.0344385 0.406962
0.582035 0.0395996 0.412365
0.594822 0.0295208 0.415868
0.601593 0.0363955 0.41514
0.601526 0.0294353 0.41597
0.618641 0.0351233 0.410392
0.617779 0.039788 0.402514
0.603712 0.0370911 0.403732
0.600843 0.0361466 0.418024
0.630228 0.0308979 0.412317
0.638105 0.0303935 0.406268
0.627115 0.0348153 0.405889
0.635844 0.0360897 0.411433
0.636198 0.0361817 0.40193
0.62331 0.0242707 0.415521
0.655734 0.0261861 0.406572
0.649025 0.0272955 0.404278
0.640559 0.0268287 0.405312
0.647749 0.0352713 0.403044
0.656772 0.0330951 0.40201
0.651195 0.0296161 0.415647
0.672158 0.0266815 0.411801
0.665816 0.0234944 0.412593
0.672318 0.0391981 0.404379
0.660801 0.0324656 0.419073
0.668619 0.0346764 0.403078
0.67034 0.0373288 0.408569
0.694558 0.0261172 0.400242
0.69044 0.0314715 0.411436
0.680465 0.0264274 0.406179
0.682089 0.0384558 0.416514
0.6974 0.0388527 0.415491
0.681879 0.0303456 0.411164
0.713549 0.038594 0.417164
0.713267 0.0393007 0.414524
0.718348 0.0248011 0.401476
0.703387 0.020991 0.403274
0.70729 0.0310278 0.406404
0.713251 0.0240302 0.40374
0.721522 0.0219378 0.416466
0.727635 0.0278342 0.412911
0.738784 0.024494 0.419726
0.73126 0.0294614 0.41505
0.726247 0.0294912 0.41324
0.723269 0.0206824 0.403773
0.74339 0.0310585 0.413214
0.759209 0.0277928 0.412876
0.753598 0.0354249 0.405769
0.74952 0.032094 0.415467
0.751771 0.0282441 0.411883
0.754532 0.0379024 0.417285
0.771263 0.0313849 0.416634
0.763613 0.0248533 0.414292
0.776702 0.0269466 0.405634
0.772784 0.0234071 0.403259
0.776623 0.0319824 0.403075
0.779358 0.0258548 0.404998
0.181201 0.051344 0.408078
0.196567 0.0536639 0.401421
0.183441 0.0484584 0.407174
0.190479 0.0405763 0.412434
0.182308 0.0447202 0.415283
0.185822 0.0479714 0.413988
0.207923 0.0541226 0.402335
0.21109 0.0554788 0.401003
0.218318 0.0413324 0.413725
0.21914 0.0564018 0.400214
0.214876 0.0519386 0.4039
0.216517 0.0530561 0.407853
0.226572 0.0446373 0.416933
0.226843 0.0574488 0.418793
0.226689 0.0596627 0.412267
0.221919 0.0556884 0.412075
0.224094 0.0409634 0.411736
0.220915 0.0550737 0.402229
0.240835 0.0463489 0.407511
0.254366 0.0447715 0.403639
0.241715 0.0518737 0.411273
0.242335 0.0479179 0.40203
0.250494 0.0592715 0.417669
0.258058 0.056151 0.401025
0.263429 0.0545779 0.416509
0.273022 0.0444179 0.402728
0.277217 0.0515398 0.402631
0.266682 0.0434798 0.403814
0.260772 0.0416121 0.417304
0.269707 0.0465138 0.414425
0.292279 0.0406528 0.405938
0.287841 0.054132 0.408805
0.285247 0.0484868 0.418071
0.280397 0.0480798 0.40106
0.280203 0.0508414 0.401182
0.287297 0.0494047 0.401203
0.312551 0.0438202 0.40033
0.319259 0.0482271 0.414398
0.303364 0.059385 0.406229
0.31346 0.0585564 0.407617
0.304748 0.0503649 0.405647
0.31794 0.0547548 0.416875
0.329703 0.0526293 0.409792
0.330682 0.0554309 0.407153
0.328944 0.0429966 0.405992
0.332202 0.0584718 0.412406
0.32742 0.0528767 0.410757
0.332401 0.04659 0.418811
0.345572 0.0455993 0.417026
0.346341 0.0527863 0.417775
0.347366 0.0520862 0.405319
0.350757 0.0557641 0.406528
0.356255 0.0410108 0.416854
0.347572 0.0448728 0.402077
0.371601 0.0565707 0.406639
0.370471 0.0540976 0.404924
0.362535 0.0536594 0.40596
0.365803 0.0593605 0.415784
0.371444 0.043088 0.403099
0.37439 0.0587269 0.418516
0.387262 0.0478893 0.402799
0.382617 0.0481268 0.417673
0.38058 0.0531697 0.417101
0.390614 0.0581675 0.401295
0.392378 0.0412758 0.419596
0.389675 0.056359 0.407459
0.407327 0.045468 0.403762
0.4008 0.0408404 0.404904
0.418834 0.0490777 0.415601
0.418188 0.057869 0.414987
0.400582 0.0493254 0.411084
0.41294 0.0557891 0.412593
0.422426 0.056792 0.403238
0.427134 0.0494771 0.411787
0.431891 0.0549332 0.418174
0.425372 0.0428532 0.403098
0.422395 0.0435204 0.408574
0.427294 0.0483425 0.415962
0.451713 0.057921 0.40244
0.445591 0.0417246 0.400432
0.450513 0.0543369 0.406286
0.443185 0.0578034 0.419664
0.444649 0.0416471 0.410624
0.449459 0.0591785 0.409455
0.466582 0.0518765 0.413897
0.471401 0.0402378 0.402546
0.473282 0.0529025 0.404824
0.471538 0.0454027 0.417017
0.471847 0.0420761 0.417853
0.476148 0.0545015 0.413259
0.485604 0.0494919 0.40921
0.480714 0.0523312 0.413532
0.485591 0.0568718 0.415216
0.485108 0.0435063 0.407277
0.485865 0.0472465 0.406025
0.485165 0.0429658 0.415066
0.502917 0.0541713 0.400811
0.506783 0.0410312 0.411753
0.501331 0.0428838 0.415201
0.506192 0.0411675 0.401997
0.515418 0.0503359 0.404003
0.503594 0.0515512 0.418375
0.524873 0.0451121 0.410743
0.526809 0.0588711 0.405867
0.528495 0.0424666 0.414955
0.534034 0.0474827 0.408094
0.527799 0.0592662 0.413286
0.52055 0.0473726 0.410617
0.542311 0.051401 0.417209
0.556588 0.0543253 0.404756
0.555325 0.0420653 0.406577
0.540842 0.0427186 0.410993
0.559002 0.0403347 0.406505
0.55465 0.0489554 0.41404
0.574255 0.0467687 0.412821
0.572397 0.0539572 0.404691
0.569444 0.0407774 0.401744
0.569207 0.0454304 0.413232
0.566417 0.0418685 0.40797
0.561373 0.049683 0.413853
0.584214 0.0461079 0.419025
0.594357 0.0533355 0.418736
0.590981 0.0504251 0.402343
0.588182 0.0473858 0.405412
0.589041 0.0594539 0.405309
0.5888 0.0512524 0.412469
0.617579 0.0463813 0.40502
0.617334 0.0492905 0.403662
0.611685 0.0527679 0.407545
0.612743 0.0486192 0.402986
0.61098 0.0538478 0.405881
0.602892 0.0479145 0.402592
0.637316 0.056401 0.411006
0.624612 0.0426669 0.402537
0.625599 0.0576754 0.419635
0.62125 0.0463118 0.405544
0.621767 0.0418507 0.403209
0.626342 0.0504412 0.413035
0.658255 0.0560105 0.418029
0.644856 0.0509197 0.413621
0.645088 0.0510418 0.408527
0.642097 0.0467375 0.417291
0.649019 0.046732 0.400871
0.659528 0.0580969 0.410331
0.66848 0.0574156 0.408612
0.671539 0.0529441 0.400733
0.665604 0.057735 0.4193
0.669316 0.0579346 0.400305
0.665347 0.0509795 0.414822
0.6795 0.0403876 0.416694
0.699407 0.0595375 0.40499
0.690827 0.0426504 0.411044
0.689737 0.0517212 0.403577
0.69177 0.0455213 0.415649
0.68041 0.0455064 0.409399
0.697948 0.0591602 0.41187
0.715936 0.0514153 0.415591
0.7197 0.0471242 0.414339
0.707688 0.0510181 0.414143
0.717955 0.0585493 0.416278
0.700882 0.059517 0.409372
0.717626 0.040525 0.407024
0.721581 0.0543769 0.406657
0.736113 0.0408517 0.407541
0.723781 0.049167 0.402369
0.735795 0.0443673 0.409408
0.729151 0.0438711 0.401698
0.729332 0.0587465 0.405073
0.743668 0.0443046 0.408602
0.74681 0.0491535 0.407674
0.743343 0.0409433 0.412283
0.74569 0.0450639 0.412944
0.75387 0.0535543 0.413709
0.752919 0.0461726 0.404449
0.76503 0.0586194 0.400573
0.768191 0.0468246 0.405256
0.779496 0.0585122 0.410781
0.762477 0.0431752 0.40961
0.776919 0.0591322 0.40585
0.774189 0.0445734 0.406778
0.795415 0.0418737 0.410746
0.791994 0.0550994 0.415086
0.781473 0.0404325 0.416005
0.788394 0.0447079 0.40724
0.794365 0.044479 0.41444
0.781126 0.0587177 0.411499
0.817526 0.0557259 0.418447
0.801093 0.0506887 0.419416
0.81398 0.0431372 0.41979
0.806684 0.053272 0.405565
0.803183 0.0408314 0.419297
0.807756 0.0474952 0.401718
0.154313 0.0641266 0.410303
0.150515 0.071287 0.416203
0.144958 0.0763757 0.408324
0.157628 0.0659653 0.404618
0.155086 0.0687675 0.406773
0.150625 0.0623762 0.402461
0.167212 0.0654587 0.406924
0.161202 0.0703225 0.409602
0.160285 0.0638892 0.407013
0.166787 0.0661648 0.407441
0.174357 0.0654554 0.404043
0.173076 0.078761 0.412523
0.193479 0.0665315 0.418667
0.190376 0.0743937 0.416404
0.18718 0.063991 0.403483
0.181889 0.0747488 0.408853
0.18379 0.0790721 0.40669
0.199077 0.0667844 0.410694
0.209538 0.0695953 0.407486
0.207636 0.0607376 0.418995
0.208965 0.0787293 0.40268
0.212944 0.064919 0.418844
0.213037 0.0682737 0.413556
0.20305 0.0673661 0.416584
0.237474 0.0605563 0.404694
0.238274 0.0783777 0.40239
0.234292 0.0783575 0.416714
0.222169 0.0734719 0.418818
0.23815 0.0651324 0.409275
0.22055 0.0635086 0.412235
0.250751 0.0610478 0.414958
0.247488 0.0682716 0.402616
0.253075 0.0712143 0.407276
0.246075 0.0766322 0.411481
0.253224 0.0745602 0.41503
0.253164 0.0763662 0.411675
0.26638 0.0767434 0.408742
0.277413 0.0737038 0.404913
0.278061 0.0762769 0.418939
0.273494 0.0645723 0.409134
0.261876 0.0763378 0.417196
0.274291 0.0706848 0.402321
0.297571 0.0675721 0.403121
0.286795 0.077327 0.413624
0.293252 0.0616061 0.401057
0.281235 0.0665058 0.400883
0.290453 0.0783679 0.405027
0.292213 0.0657115 0.418961
0.310281 0.0692995 0.410785
0.317842 0.0686468 0.409151
0.302818 0.0758815 0.406389
0.316324 0.0750709 0.412699
0.313692 0.0778701 0.417517
0.306907 0.0788428 0.417014
0.325289 0.0796908 0.412813
0.330784 0.07812 0.418602
0.334296 0.0688958 0.410794
0.334126 0.0675637 0.417548
0.332696 0.0777198 0.402326
0.324844 0.0706428 0.409413
0.35312 0.0749263 0.409607
0.34329 0.0675043 0.401073
0.348223 0.0779555 0.401766
0.347703 0.0767175 0.408692
0.355024 0.0792271 0.405663
0.340799 0.062382 0.41945
0.370823 0.0641775 0.40186
0.364674 0.072436 0.402519
0.36382 0.0770232 0.413251
0.364529 0.0706381 0.418662
0.369529 0.0737665 0.406523
0.375238 0.0797018 0.417613
0.397549 0.0613299 0.413332
0.385339 0.0678179 0.409398
0.387353 0.0736228 0.419648
0.398674 0.0634728 0.408548
0.382244 0.071057 0.416014
0.392488 0.0654124 0.4185
0.416395 0.0705838 0.4144
0.418415 0.0644877 0.40231
0.417752 0.0647588 0.413314
0.410845 0.0654062 0.411025
0.418076 0.0677909 0.414872
0.404033 0.0705042 0.402544
0.426767 0.0662876 0.408002
0.424598 0.060617 0.401566
0.424234 0.0691714 0.406855
0.432769 0.0649042 0.410754
0.424056 0.0752838 0.416404
0.426575 0.0783857 0.417335
0.454519 0.0679275 0.402597
0.45701 0.0608397 0.403587
0.448772 0.0650352 0.418312
0.457275 0.0692298 0.404899
0.446708 0.0673948 0.409429
0.44206 0.0618077 0.409449
0.46291 0.0646131 0.414731
0.478393 0.0746162 0.403723
0.468484 0.0715712 0.400283
0.463426 0.0659704 0.412563
0.465204 0.0750464 0.409188
0.473137 0.0771955 0.402292
0.497196 0.0656925 0.412013
0.495356 0.0611334 0.403864
0.483187 0.0658614 0.405812
0.493491 0.0749976 0.40421
0.493866 0.0697635 0.400708
0.495075 0.069242 0.415023
0.502668 0.066511 0.409183
0.513022 0.077049 0.41967
0.516373 0.0674366 0.406554
0.510659 0.074152 0.415375
0.516524 0.0671961 0.401939
0.500293 0.0622401 0.41222
0.534041 0.0606311 0.414599
0.538994 0.0633539 0.415984
0.523009 0.0731022 0.414991
0.531544 0.0650235 0.411763
0.528956 0.073252 0.410708
0.526818 0.0606961 0.402163
0.542567 0.0726685 0.413751
0.549306 0.0784566 0.417138
0.55606 0.0703247 0.410737
0.552735 0.0725655 0.410444
0.556079 0.0734519 0.408859
0.558223 0.0769716 0.402793
0.564956 0.0684042 0.405439
0.565931 0.0796895 0.403584
0.578968 0.0727124 0.400835
0.575573 0.0651869 0.410709
0.561238 0.0785633 0.410995
0.561881 0.0654882 0.400975
0.589527 0.0786906 0.405048
0.593779 0.0666485 0.408133
0.58067 0.0768385 0.408065
0.586599 0.069117 0.413198
0.581792 0.0634784 0.40555
0.599785 0.0602233 0.416861
0.606243 0.0766744 0.418622
0.619757 0.0718648 0.415084
0.601954 0.0675137 0.404975
0.614157 0.0673294 0.403193
0.613431 0.0792944 0.401756
0.603344 0.0610146 0.400488
0.633864 0.0753338 0.406013
0.637738 0.0762002 0.413184
0.629439 0.0634136 0.418431
0.620967 0.0730522 0.400638
0.637656 0.0633904 0.408971
0.636461 0.0679455 0.419452
0.656049 0.0726141 0.408814
0.652416 0.0664728 0.407311
0.657871 0.0730469 0.409212
0.652614 0.0709146 0.403868
0.640677 0.0663195 0.410775
0.654267 0.0715254 0.409094
0.671392 0.063866 0.415599
0.6797 0.0773338 0.400906
0.663724 0.0753835 0.418906
0.661104 0.0695493 0.400956
0.678742 0.0632768 0.409001
0.668672 0.0688035 0.408817
0.688569 0.0606639 0.406776
0.69598 0.0788352 0.414646
0.686082 0.0612429 0.415925
0.69883 0.0681288 0.418856
0.69776 0.0774113 0.414859
0.689699 0.0606234 0.411201
0.711568 0.0750526 0.405271
0.70128 0.068635 0.404331
0.716404 0.0666988 0.40192
0.706437 0.0739199 0.415485
0.707717 0.0669485 0.417061
0.704231 0.0784648 0.401463
0.723801 0.0784071 0.403268
0.721338 0.0781833 0.414021
0.724517 0.0783291 0.401032
0.724513 0.0719378 0.413316
0.720787 0.069471 0.404284
0.724081 0.0678687 0.412683
0.741641 0.0613687 0.4113
0.743806 0.0764398 0.40698
0.742778 0.0609336 0.415973
0.755447 0.0681159 0.412981
0.750421 0.0725718 0.411099
0.742007 0.0796666 0.417361
0.777162 0.0744045 0.409246
0.77888 0.068436 0.414882
0.769612 0.0668641 0.414407
0.766821 0.0711579 0.405995
0.767742 0.071247 0.405873
0.760433 0.0773812 0.4161
0.797582 0.0706798 0.418711
0.780482 0.0755793 0.412905
0.793023 0.0630566 0.417676
0.797225 0.0743985 0.406402
0.799567 0.0610644 0.408397
0.793705 0.0631457 0.405336
0.819379 0.0646434 0.400674
0.817747 0.0743877 0.414502
0.801747 0.0797025 0.414283
0.807828 0.0662665 0.405317
0.819329 0.0622634 0.402712
0.815144 0.0747909 0.418072
0.839561 0.0777462 0.401378
0.825647 0.0614811 0.402624
0.838914 0.0770012 0.41222
0.832386 0.0797951 0.413135
0.821375 0.0787335 0.407781
0.837444 0.0776379 0.40319
0.856529 0.0710476 0.400965
0.859175 0.0626097 0.408276
0.841519 0.0719094 0.414528
0.854091 0.0791776 0.412489
0.850422 0.067801 0.405294
0.850307 0.0791151 0.409169
0.122309 0.0869807 0.414694
0.132321 0.0823905 0.411397
0.137592 0.0891626 0.413782
0.125305 0.0836177 0.406816
0.123331 0.0883307 0.415799
0.137663 0.0966004 0.415212
0.155968 0.0929067 0.411722
0.155463 0.0958727 0.406343
0.147479 0.0856937 0.418924
0.146848 0.0889116 0.418051
0.149011 0.0877902 0.419633
0.159671 0.0854023 0.403201
0.165661 0.0849228 0.416816
0.161277 0.0963802 0.404701
0.178969 0.0919532 0.408102
0.168698 0.0980928 0.415061
0.160529 0.0888608 0.402961
0.161464 0.0991083 0.412399
0.189552 0.0916628 0.419196
0.1823 0.0881992 0.410332
0.195542 0.0822466 0.403713
0.193278 0.0908642 0.40788
0.195461 0.0872912 0.413083
0.192374 0.0846654 0.40906
0.206981 0.0861193 0.418755
0.213858 0.0905659 0.414722
0.213603 0.0981844 0.419453
0.202923 0.0864894 0.415447
0.20854 0.091573 0.400967
0.215518 0.0941939 0.419666
0.236513 0.09021 0.416735
0.232147 0.0865345 0.401006
0.229086 0.0932081 0.412359
0.234602 0.0835551 0.408805
0.228026 0.0836862 0.404511
0.22587 0.080775 0.415102
0.256376 0.0833081 0.419123
0.247793 0.0962002 0.400973
0.254839 0.0828644 0.410576
0.255299 0.0962787 0.408111
0.243272 0.0918762 0.405454
0.248902 0.0819142 0.40123
0.267982 0.0883735 0.406108
0.272934 0.0915878 0.411954
0.274811 0.0986714 0.408831
0.269703 0.0823396 0.405304
0.264058 0.08536 0.414004
0.267067 0.082205 0.407479
0.291732 0.0952609 0.408194
0.291083 0.0858887 0.403578
0.28126 0.0881365 0.400821
0.299602 0.0912589 0.417131
0.296553 0.0827375 0.416095
0.298764 0.093048 0.416552
0.314987 0.0927215 0.41346
0.300756 0.0961049 0.418694
0.302808 0.0850698 0.403157
0.317449 0.0888523 0.416741
0.302063 0.0879821 0.413482
0.319783 0.0847636 0.40609
0.325589 0.0992882 0.400894
0.336493 0.0916306 0.418182
0.327414 0.0887479 0.402158
0.335322 0.0856575 0.413451
0.338539 0.0873004 0.411073
0.331725 0.086966 0.411607
0.348458 0.0925356 0.408039
0.348714 0.0870491 0.417189
0.357258 0.0867266 0.413536
0.341155 0.0845369 0.410257
0.355026 0.0842759 0.409594
0.346747 0.0932999 0.408089
0.362436 0.0936394 0.404808
0.371619 0.0907622 0.405891
0.379365 0.0980422 0.406384
0.366307 0.084936 0.418337
0.36462 0.0923448 0.403756
0.372288 0.0853245 0.418299
0.392022 0.0916527 0.416888
0.38904 0.0984431 0.411297
0.396698 0.0822187 0.414347
0.390857 0.0927549 0.402463
0.381312 0.0831241 0.412566
0.392553 0.0852819 0.413868
0.411958 0.0864839 0.411249
0.417856 0.0875988 0.400652
0.407499 0.0812674 0.413
0.411089 0.0859124 0.403216
0.409781 0.0867623 0.402912
0.416669 0.0806374 0.410736
0.427024 0.0959665 0.412052
0.427692 0.0941354 0.416482
0.421427 0.0996555 0.412506
0.438199 0.0809167 0.4105
0.433568 0.0846333 0.405736
0.434378 0.0810944 0.410598
0.444408 0.0994816 0.417686
0.442662 0.0848918 0.412269
0.445903 0.0904131 0.410796
0.458862 0.0836589 0.400826
0.440376 0.0973548 0.408662
0.443205 0.0876288 0.405164
0.478296 0.0845271 0.413038
0.475676 0.0921989 0.409347
0.475766 0.0810909 0.406638
0.461522 0.0874685 0.409095
0.462694 0.0970209 0.407252
0.472826 0.0808285 0.41056
0.496283 0.0821387 0.418806
0.495238 0.0862011 0.411931
0.493971 0.0954576 0.405796
0.494718 0.0963916 0.41674
0.48329 0.0881031 0.402633
0.499288 0.0931557 0.416608
