ply
format ascii 1.0
element vertex 1764
property float x
property float y
property float z
end_header
0.27085 0.148982 0.300534
0.268104 0.158619 0.315094
0.276763 0.15663 0.314979
0.264099 0.149747 0.30459
0.268548 0.147186 0.307761
0.269541 0.142554 0.303983
0.283048 0.157847 0.302039
0.284781 0.141125 0.316203
0.298687 0.15178 0.319248
0.282172 0.144934 0.301625
0.280942 0.14369 0.308723
0.290518 0.141357 0.317267
0.305994 0.141613 0.30842
0.306815 0.144621 0.304668
0.316472 0.143547 0.306804
0.304135 0.155897 0.315475
0.305221 0.141683 0.306815
0.314159 0.157559 0.315235
0.323729 0.158542 0.300299
0.323607 0.140744 0.307596
0.338328 0.159563 0.307444
0.330536 0.140696 0.306242
0.329096 0.144575 0.305825
0.325872 0.151722 0.313272
0.355996 0.148325 0.307978
0.347734 0.141275 0.311648
0.347379 0.142803 0.305446
0.349492 0.150683 0.31268
0.351346 0.157642 0.316017
0.356875 0.154397 0.311217
0.374637 0.159676 0.316543
0.375724 0.147608 0.313573
0.378798 0.145502 0.3178
0.366484 0.157058 0.308414
0.373838 0.144706 0.310594
0.379731 0.14273 0.309116
0.394421 0.142779 0.309194
0.390904 0.144002 0.303077
0.399629 0.150911 0.307713
0.398101 0.157704 0.314988
0.392975 0.144078 0.305027
0.394136 0.148324 0.301385
0.416959 0.14525 0.316575
0.405794 0.149251 0.318068
0.412489 0.14318 0.311464
0.412697 0.147712 0.311214
0.416529 0.151139 0.308007
0.416388 0.142336 0.316315
0.434225 0.14532 0.307017
0.433786 0.151091 0.303409
0.426235 0.158312 0.316511
0.426117 0.150853 0.313981
0.434614 0.15692 0.315956
0.432221 0.158256 0.311924
0.441049 0.159765 0.305653
0.442664 0.146505 0.315485
0.459049 0.156953 0.315358
0.458126 0.147248 0.317831
0.447177 0.154944 0.311211
0.446374 0.157662 0.302403
0.468849 0.146051 0.305054
0.468848 0.142015 0.318038
0.469212 0.152485 0.311758
0.477316 0.155471 0.315836
0.467125 0.145197 0.307332
0.463814 0.141554 0.316777
0.496332 0.141651 0.305323
0.489138 0.143161 0.30501
0.483726 0.149612 0.314854
0.498905 0.156647 0.304368
0.493293 0.141239 0.317437
0.492041 0.156555 0.311356
0.506074 0.156223 0.30146
0.502486 0.15088 0.314791
0.515802 0.147268 0.311968
0.513506 0.158626 0.307034
0.500958 0.151976 0.314199
0.515934 0.157925 0.317023
0.536385 0.14159 0.307351
0.535898 0.142428 0.30608
0.537856 0.153712 0.318692
0.528866 0.149724 0.303157
0.531444 0.155928 0.301671
0.528847 0.155604 0.309227
0.543368 0.154623 0.309513
0.558608 0.148217 0.308572
0.551376 0.146952 0.304115
0.552304 0.158879 0.319105
0.541907 0.147476 0.313551
0.559711 0.155873 0.316715
0.577487 0.148926 0.307853
0.574853 0.157826 0.3047
0.576781 0.158779 0.319466
0.56364 0.148577 0.305283
0.563859 0.141393 0.307172
0.572879 0.15449 0.315322
0.598899 0.148649 0.301286
0.598502 0.156708 0.303689
0.588372 0.152011 0.318815
0.581432 0.150394 0.311156
0.596289 0.146577 0.304758
0.582971 0.143359 0.319679
0.617836 0.152552 0.314156
0.616585 0.14284 0.305613
0.613642 0.156469 0.310295
0.603115 0.142172 0.313581
0.617375 0.15475 0.301188
0.607978 0.146422 0.301821
0.632335 0.142581 0.31489
0.629557 0.140737 0.31738
0.63095 0.140696 0.304307
0.637082 0.15507 0.307508
0.622584 0.157902 0.311764
0.622495 0.151329 0.3114
0.645223 0.145392 0.303122
0.658442 0.155293 0.300934
0.649047 0.155401 0.308896
0.644939 0.142003 0.30766
0.655396 0.159489 0.301135
0.644242 0.153214 0.312533
0.660548 0.140276 0.313009
0.665015 0.152027 0.316854
0.678069 0.142928 0.314924
0.673665 0.149496 0.309255
0.667723 0.146989 0.313341
0.664955 0.152478 0.31843
0.6916 0.157904 0.305825
0.692713 0.15819 0.311218
0.684634 0.148904 0.316811
0.684112 0.141976 0.314804
0.68852 0.158356 0.308359
0.696585 0.142452 0.318811
0.711971 0.158832 0.319037
0.712771 0.142414 0.306545
0.706765 0.154747 0.314197
0.708926 0.152693 0.316597
0.703993 0.157077 0.314217
0.719043 0.151737 0.310277
0.735534 0.149751 0.308794
0.728694 0.149298 0.319483
0.727913 0.149306 0.315777
0.729553 0.142489 0.318342
0.729162 0.159716 0.311609
0.736826 0.14638 0.304609
0.741848 0.1482 0.305215
0.752145 0.144273 0.318064
0.75142 0.157347 0.317018
0.752668 0.143118 0.307901
0.749651 0.145918 0.318832
0.741595 0.152107 0.307676
0.772525 0.153335 0.317662
0.77772 0.140805 0.306062
0.776452 0.159025 0.301923
0.760657 0.151713 0.301017
0.765508 0.158158 0.314709
0.762845 0.143561 0.30332
0.79887 0.144489 0.311257
0.79839 0.141266 0.307833
0.784404 0.158593 0.305054
0.792924 0.142026 0.301035
0.781874 0.141252 0.305279
0.790732 0.156706 0.306709
0.810419 0.148231 0.308814
0.80806 0.15832 0.312219
0.811681 0.158804 0.319135
0.812841 0.14474 0.312482
0.808671 0.14968 0.315995
0.805202 0.150325 0.318329
0.82659 0.143897 0.302475
0.827387 0.153885 0.318161
0.830299 0.157126 0.308367
0.834876 0.144006 0.315786
0.820805 0.155506 0.318443
0.833666 0.144469 0.307978
0.842275 0.148799 0.317194
0.855715 0.149695 0.301004
0.843915 0.146133 0.318446
0.857101 0.147051 0.312465
0.847911 0.15112 0.308481
0.840587 0.151257 0.300769
0.864871 0.150697 0.303602
0.861383 0.152984 0.306254
0.875107 0.159355 0.304518
0.870504 0.152745 0.310385
0.873981 0.143446 0.317617
0.86973 0.151337 0.313695
0.895406 0.150876 0.304812
0.895677 0.151926 0.300478
0.890857 0.149193 0.316378
0.887742 0.155329 0.31524
0.886631 0.148397 0.313513
0.881681 0.155514 0.308878
0.906185 0.154254 0.310277
0.915026 0.156588 0.317689
0.901396 0.143187 0.313742
0.911981 0.148991 0.317585
0.914559 0.154582 0.318855
0.916017 0.152147 0.313051
0.237301 0.030813 0.33723
0.234322 0.0275694 0.328055
0.221195 0.0307584 0.327032
0.223298 0.0371366 0.333461
0.231999 0.0272125 0.336319
0.236401 0.0241003 0.32863
0.247477 0.025862 0.323607
0.253809 0.0386411 0.332195
0.257556 0.0381438 0.329052
0.257323 0.0286739 0.327816
0.244559 0.0253068 0.333677
0.245652 0.0381389 0.330438
0.267465 0.0315925 0.333018
0.273718 0.032585 0.324591
0.261828 0.0276713 0.328606
0.273558 0.0296803 0.327297
0.279543 0.0237753 0.33543
0.2697 0.0334091 0.330757
0.290219 0.0255333 0.324015
0.295229 0.0236972 0.329175
0.298638 0.0337905 0.3325
0.284603 0.0376598 0.326185
0.281096 0.0335996 0.336052
0.297556 0.0254064 0.32538
0.307208 0.0338316 0.322025
0.301995 0.0320246 0.322144
0.303583 0.0283118 0.339254
0.304679 0.0285632 0.336184
0.31882 0.0383228 0.33497
0.313592 0.0338884 0.338208
0.324742 0.0256316 0.335593
0.333033 0.0244284 0.33395
0.336973 0.0257679 0.333316
0.323824 0.0340067 0.323921
0.334497 0.0338594 0.329247
0.326229 0.0321403 0.337709
0.344685 0.0362189 0.327908
0.355952 0.0274411 0.328932
0.355069 0.0396767 0.324156
0.358736 0.0285653 0.3222
0.357725 0.0211913 0.322067
0.344783 0.0235965 0.335586
0.371554 0.0296716 0.324408
0.375126 0.0243545 0.328566
0.368068 0.0202459 0.333637
0.377968 0.0313612 0.330582
0.367259 0.0246452 0.325519
0.363587 0.0248976 0.334907
0.386906 0.0334981 0.337671
0.397319 0.0226366 0.335473
0.381337 0.0254712 0.332939
0.380427 0.0357868 0.336426
0.38851 0.0392373 0.330421
0.384201 0.0347065 0.332729
0.415231 0.0273419 0.33977
0.403386 0.0389491 0.334176
0.41106 0.023742 0.320764
0.410388 0.0203972 0.338849
0.418242 0.0245315 0.323513
0.413242 0.0320535 0.322684
0.42533 0.0266293 0.332147
0.429209 0.0357815 0.320572
0.433817 0.0346742 0.32557
0.427439 0.0251907 0.32487
0.428455 0.0325935 0.325061
0.434955 0.0347966 0.32392
0.441235 0.0207131 0.337089
0.458721 0.0268773 0.326087
0.452421 0.0332637 0.320453
0.456928 0.0311979 0.329409
0.456329 0.0209884 0.33148
0.445701 0.0326009 0.32047
0.473753 0.0328421 0.333603
0.469541 0.0346947 0.323716
0.472572 0.0390331 0.338733
0.461476 0.0281254 0.329313
0.46488 0.025031 0.326785
0.473975 0.0381892 0.320636
0.483165 0.0368065 0.339069
0.491682 0.0247766 0.32804
0.491152 0.0385577 0.336983
0.495737 0.0352685 0.323804
0.494224 0.0394199 0.320627
0.491488 0.0362611 0.33441
0.503707 0.0361237 0.32642
0.515853 0.0347123 0.320471
0.514696 0.0205956 0.322747
0.518904 0.0330911 0.325361
0.516301 0.0322336 0.339607
0.51458 0.0270903 0.32178
0.527532 0.0382183 0.322707
0.527557 0.0342489 0.335245
0.539084 0.0311444 0.339263
0.53036 0.0235051 0.339028
0.525375 0.0339968 0.320432
0.52391 0.033396 0.323174
0.55126 0.0348316 0.338642
0.541668 0.0350344 0.339696
0.545734 0.0362313 0.333114
0.554077 0.0223938 0.321078
0.545245 0.0307257 0.331928
0.550933 0.0246965 0.32796
0.573497 0.0207579 0.323141
0.560242 0.0221863 0.327561
0.563862 0.0288095 0.324223
0.560236 0.021198 0.332113
0.570572 0.0319088 0.324494
0.573028 0.0288631 0.325613
0.58153 0.0259068 0.333344
0.582709 0.0243104 0.333948
0.58662 0.023356 0.321317
0.58249 0.0269073 0.331182
0.596367 0.0286191 0.320711
0.583529 0.0357127 0.336167
0.614102 0.033401 0.333112
0.616286 0.026729 0.330476
0.611014 0.0357758 0.325013
0.61624 0.0393547 0.339495
0.609798 0.0261049 0.334774
0.615731 0.0294995 0.324273
0.634614 0.0340346 0.336439
0.623393 0.0236105 0.320484
0.625133 0.020647 0.326486
0.631664 0.0262992 0.33913
0.631411 0.0334432 0.337071
0.629169 0.038945 0.337138
0.655676 0.0250096 0.323775
0.64075 0.0297049 0.32605
0.641066 0.0223862 0.336076
0.650473 0.0352021 0.334269
0.656248 0.0292555 0.332305
0.647048 0.0340137 0.334822
0.67176 0.0234618 0.32734
0.67565 0.0261044 0.323069
0.676438 0.0320519 0.337587
0.668842 0.0311794 0.333341
0.669267 0.0344938 0.322265
0.665305 0.0379834 0.323258
0.697905 0.0289317 0.337811
0.680447 0.0229256 0.328095
0.696667 0.0326182 0.338364
0.688629 0.0279932 0.326536
0.692459 0.0321318 0.331625
0.689714 0.030408 0.336004
0.70927 0.0213638 0.328777
0.707879 0.0387581 0.335417
0.702882 0.0241182 0.323109
0.712671 0.0270912 0.330283
0.717215 0.0386459 0.325218
0.70762 0.0323215 0.337919
0.734206 0.0242361 0.327485
0.72149 0.0360903 0.330222
0.738947 0.0339748 0.324787
0.723314 0.032362 0.329241
0.731323 0.0393137 0.32729
0.731609 0.0216203 0.329181
0.74078 0.0250018 0.335384
0.755066 0.0392387 0.322882
0.754765 0.0312808 0.325166
0.757402 0.0371716 0.338012
0.742936 0.0331145 0.325406
0.753208 0.0239482 0.329119
0.769121 0.0335457 0.336792
0.762528 0.0370396 0.327045
0.779189 0.0223186 0.33624
0.765795 0.0272515 0.326958
0.764624 0.0390156 0.338857
0.773446 0.0314537 0.339798
0.19188 0.0432574 0.3348
0.184915 0.0495847 0.320805
0.188801 0.0529733 0.323663
0.181892 0.0527615 0.323743
0.180634 0.0470229 0.32501
0.191735 0.0559408 0.332623
0.212657 0.0541645 0.323535
0.208204 0.0441996 0.336262
0.21422 0.0463373 0.336232
0.212068 0.0419739 0.338582
0.21634 0.0445298 0.32529
0.211742 0.0489254 0.326349
0.222293 0.0531157 0.328681
0.227695 0.0508738 0.326287
0.232534 0.0449064 0.323761
0.232014 0.0449832 0.322855
0.232489 0.0576724 0.33781
0.223869 0.0531437 0.325182
0.254213 0.058929 0.331491
0.24625 0.0592686 0.33718
0.249267 0.0497154 0.334749
0.256056 0.0435591 0.326817
0.256976 0.0568901 0.321435
0.253194 0.046347 0.328643
0.269438 0.0456572 0.335706
0.279571 0.0452557 0.322411
0.271878 0.0488659 0.337937
0.273713 0.051376 0.338074
0.268957 0.0469412 0.337857
0.277745 0.0424282 0.321559
0.287931 0.0450711 0.337127
0.290832 0.0593736 0.325899
0.289324 0.0508195 0.338272
0.280966 0.0554349 0.323232
0.295483 0.0476136 0.321259
0.285631 0.0576629 0.320943
0.316809 0.0550102 0.322251
0.314198 0.0549044 0.327063
0.310946 0.0486085 0.326905
0.312606 0.0456346 0.327905
0.310731 0.045349 0.338123
0.313376 0.0404902 0.325441
0.323732 0.0564927 0.325073
0.330834 0.0549753 0.321428
0.323817 0.0444597 0.335904
0.33695 0.0513347 0.337312
0.33957 0.0543752 0.335228
0.339691 0.0404001 0.335892
0.35107 0.0444276 0.331546
0.340583 0.0577344 0.332911
0.342441 0.0408225 0.339548
0.357008 0.0577165 0.336209
0.34847 0.0454661 0.325398
0.350891 0.0518959 0.338493
0.378716 0.048078 0.332669
0.36038 0.0445844 0.335132
0.36301 0.0436424 0.327766
0.361699 0.0472854 0.324025
0.367763 0.0505096 0.330679
0.361117 0.0421133 0.327167
0.384978 0.0451849 0.335004
0.398751 0.0581071 0.325706
0.386396 0.0557019 0.335684
0.395621 0.0426996 0.334253
0.383876 0.0409189 0.339252
0.387541 0.0434981 0.328883
0.409522 0.0522789 0.320942
0.403574 0.0531898 0.335955
0.4139 0.0581092 0.325845
0.400569 0.0584601 0.327194
0.417594 0.0431652 0.338554
0.408126 0.0582365 0.332341
0.422082 0.0412937 0.339779
0.434842 0.0422842 0.337075
0.438169 0.0486112 0.336033
0.430666 0.054345 0.332282
0.430308 0.048301 0.334449
0.437711 0.0448027 0.335373
0.445929 0.0596375 0.338217
0.456221 0.0470536 0.331799
0.456561 0.0540014 0.328706
0.44413 0.0547438 0.320913
0.44921 0.047387 0.332191
0.440377 0.0523821 0.337044
0.474604 0.0509188 0.328439
0.469667 0.0516656 0.339658
0.463002 0.0516738 0.326085
0.463172 0.0479849 0.327896
0.473221 0.0510045 0.324493
0.474372 0.0488771 0.333973
0.495822 0.0544099 0.337776
0.482348 0.0409624 0.333002
0.48964 0.0521641 0.336638
0.484414 0.0575004 0.325316
0.487956 0.0523371 0.321257
0.494526 0.0546661 0.338102
0.507097 0.0514334 0.335339
0.503505 0.0562256 0.330975
0.504296 0.0457585 0.336373
0.519368 0.0463935 0.339611
0.514565 0.0589118 0.33063
0.506981 0.0595421 0.323305
0.531472 0.0446804 0.32374
0.533615 0.0412192 0.333779
0.523797 0.0523963 0.327938
0.527167 0.0412748 0.33191
0.520843 0.0581192 0.327045
0.532124 0.0483884 0.321088
0.553694 0.0561841 0.32367
0.544947 0.0519532 0.329599
0.545191 0.0539007 0.334611
0.554545 0.0442835 0.335407
0.544212 0.0440866 0.338315
0.559729 0.050883 0.321414
0.565846 0.0515328 0.321936
0.577631 0.0482537 0.322004
0.578799 0.0575758 0.332238
0.569632 0.0495103 0.334545
0.568164 0.047133 0.326858
0.564433 0.0520462 0.336255
0.594516 0.0550674 0.327092
0.580891 0.0504776 0.333382
0.593279 0.0516376 0.338411
0.585969 0.0518906 0.337241
0.598388 0.0422163 0.324458
0.580371 0.0530829 0.324277
0.615264 0.0592411 0.32653
0.614658 0.0424533 0.321195
0.617358 0.054901 0.324063
0.602174 0.0525336 0.320635
0.608781 0.0595194 0.333861
0.617299 0.0573138 0.325238
0.628299 0.0566632 0.33934
0.631167 0.0521904 0.320565
0.621033 0.0491283 0.333171
0.633625 0.0508559 0.325223
0.633195 0.0514115 0.332518
0.628584 0.0565865 0.336477
0.647773 0.0456841 0.325605
0.653177 0.0421877 0.334776
0.659486 0.0420705 0.327881
0.65217 0.0566805 0.320467
0.656863 0.0462586 0.337994
0.658823 0.0594559 0.336207
0.669002 0.044105 0.327126
0.670903 0.0476753 0.333192
0.676035 0.0567455 0.332576
0.676633 0.051449 0.326536
0.660739 0.0468771 0.325889
0.670989 0.0405157 0.326594
0.696647 0.0535572 0.334035
0.692695 0.0479293 0.332182
0.69652 0.0574938 0.330457
0.680698 0.0524122 0.339138
0.683322 0.0585542 0.335925
0.688111 0.0566306 0.323498
0.707247 0.0441838 0.329368
0.704013 0.0577593 0.32979
0.701349 0.0587647 0.329551
0.716579 0.0496087 0.327477
0.711022 0.0472992 0.328494
0.702849 0.041593 0.320793
0.738665 0.0421982 0.326187
0.728714 0.0480711 0.321586
0.738525 0.0591022 0.325876
0.736761 0.052748 0.328298
0.723175 0.0527448 0.331633
0.738606 0.0455947 0.320273
0.756713 0.0413584 0.329385
0.751066 0.0496641 0.325699
0.746875 0.0408056 0.339683
0.752674 0.0513545 0.321159
0.741204 0.0507959 0.329265
0.746164 0.0467799 0.339598
0.77288 0.0518813 0.338975
0.767918 0.0445592 0.328577
0.774205 0.0473822 0.325949
0.772777 0.0473656 0.332949
0.772927 0.0454745 0.328398
0.77437 0.0456838 0.331254
0.797557 0.04648 0.335994
0.796472 0.0413717 0.320431
0.789519 0.0403823 0.333943
0.7825 0.0442156 0.320793
0.796485 0.040376 0.339573
0.798586 0.0522853 0.338049
0.818721 0.0442806 0.334735
0.811893 0.0530832 0.32213
0.817441 0.0582467 0.330446
0.813221 0.0502313 0.326242
0.80128 0.0485093 0.32455
0.804325 0.0524597 0.332818
0.151802 0.0753115 0.331143
0.156512 0.0652057 0.321713
0.156932 0.0697156 0.338165
0.143612 0.0749656 0.328106
0.146046 0.0643487 0.334102
0.145409 0.0609903 0.325599
0.168184 0.0652329 0.331941
0.173605 0.0759199 0.335355
0.176768 0.0619376 0.329456
0.169298 0.0609952 0.332724
0.167118 0.0782734 0.326492
0.166639 0.0780901 0.339588
0.19629 0.0780998 0.333734
0.193224 0.0603479 0.327781
0.181239 0.0750431 0.327041
0.187545 0.0730979 0.331641
0.199494 0.077994 0.331047
0.193529 0.0783783 0.324158
0.20069 0.077044 0.327141
0.212893 0.060887 0.333263
0.214606 0.064679 0.323447
0.206825 0.0612389 0.33686
0.210604 0.0736733 0.333295
0.216656 0.0684542 0.323054
0.230496 0.0630532 0.333909
0.232509 0.0694963 0.333415
0.23716 0.0747754 0.33122
0.237979 0.0797937 0.332133
0.237701 0.0757208 0.331626
0.232079 0.064547 0.337206
0.250949 0.0712554 0.32676
0.244722 0.0645826 0.325959
0.248231 0.0746145 0.33565
0.259622 0.0743785 0.333993
0.25179 0.0756021 0.335809
0.250308 0.0747534 0.324714
0.273537 0.0783661 0.33959
0.275367 0.0626344 0.338956
0.264606 0.0753091 0.320587
0.274092 0.0646823 0.32726
0.279375 0.0668258 0.329162
0.26446 0.0627923 0.320409
0.282557 0.0740559 0.332696
0.289166 0.06623 0.33542
0.299275 0.0680901 0.330561
0.28687 0.0755928 0.32958
0.299102 0.0670332 0.33931
0.280277 0.0658501 0.326197
0.303761 0.0751694 0.334409
0.317997 0.0786003 0.320566
0.300615 0.0692606 0.324252
0.306819 0.066075 0.323524
0.316493 0.0797533 0.337507
0.304711 0.079657 0.335151
0.335103 0.079594 0.33806
0.321011 0.0673897 0.328936
0.335581 0.0737497 0.329334
0.338741 0.0733417 0.336203
0.339368 0.0748672 0.328039
0.329678 0.0694124 0.333037
0.358675 0.0667983 0.334379
0.340723 0.0704825 0.327883
0.352618 0.0769086 0.325439
0.342491 0.0734379 0.327052
0.343368 0.0677139 0.324641
0.342758 0.0690589 0.323039
0.367682 0.062919 0.332919
0.360452 0.0778248 0.326925
0.366034 0.077973 0.337477
0.372125 0.0733469 0.320714
0.371563 0.0608625 0.324859
0.366197 0.068525 0.332168
0.397743 0.0612724 0.321727
0.396584 0.0754896 0.33183
0.391917 0.0734231 0.337875
0.387787 0.0668515 0.329007
0.382529 0.0772375 0.327271
0.392624 0.0742795 0.336541
0.417057 0.0775243 0.335821
0.401516 0.0606693 0.335289
0.411045 0.0705903 0.338638
0.41649 0.0722855 0.327966
0.415421 0.0621264 0.320835
0.409296 0.0645513 0.327618
0.436947 0.0715777 0.320844
0.432786 0.0763628 0.334286
0.42346 0.0702069 0.332379
0.431356 0.0792912 0.330286
0.421217 0.073836 0.327526
0.42022 0.0745779 0.334541
0.451298 0.0727053 0.330688
0.453309 0.0760787 0.323082
0.448491 0.0692924 0.334559
0.450927 0.0796835 0.339754
0.441266 0.0723677 0.328605
0.441481 0.0620795 0.339135
0.468279 0.064192 0.329061
0.462979 0.0765465 0.337664
0.476916 0.0730193 0.324236
0.475917 0.0703146 0.323768
0.477906 0.0788659 0.327267
0.468914 0.0649345 0.33697
0.481509 0.0756428 0.33696
0.499675 0.0649339 0.325149
0.498373 0.0732862 0.32234
0.485542 0.0672844 0.33496
0.491867 0.0626971 0.327343
0.498138 0.0654641 0.327771
0.518643 0.0628375 0.336752
0.508274 0.0756603 0.326269
0.515485 0.0714451 0.322022
0.513508 0.07266 0.338848
0.503672 0.0641601 0.329527
0.508157 0.0636635 0.338689
0.528803 0.0752718 0.327442
0.535346 0.0737118 0.326592
0.521139 0.070498 0.325608
0.531966 0.0752094 0.336603
0.523263 0.0742742 0.339222
0.526348 0.0712642 0.321817
0.542158 0.0664236 0.331704
0.557404 0.0658454 0.336996
0.557956 0.0626149 0.337566
0.545177 0.0657492 0.323523
0.55225 0.064624 0.329754
0.540381 0.0704316 0.332255
0.565728 0.0736696 0.33241
0.577381 0.0714779 0.338728
0.567004 0.0704918 0.330702
0.578048 0.0763126 0.339148
0.575564 0.0681463 0.334198
0.575451 0.0712524 0.326134
0.590279 0.0763111 0.328432
0.595383 0.0647242 0.322441
0.589448 0.0733473 0.323146
0.580622 0.0781797 0.33256
0.594786 0.0793155 0.320678
0.59392 0.0634562 0.326512
0.601819 0.0646826 0.322247
0.610383 0.075672 0.322251
0.604957 0.0631333 0.324131
0.607675 0.0750058 0.327105
0.617005 0.0643561 0.33232
0.614616 0.0677271 0.338531
0.622146 0.0623266 0.339107
0.620996 0.0782699 0.323947
0.639441 0.0712856 0.337378
0.6346 0.0687067 0.322874
0.632876 0.0739095 0.332379
0.634327 0.0658133 0.322259
0.646405 0.0787145 0.330847
0.655891 0.0683822 0.333769
0.654937 0.0690292 0.327488
0.647099 0.078695 0.328735
0.648889 0.0664987 0.328986
0.645005 0.0787651 0.322788
0.663576 0.0648378 0.337981
0.663377 0.0788917 0.325823
0.661358 0.0717112 0.333174
0.6721 0.0721953 0.32627
0.662621 0.0603536 0.327067
0.671853 0.0742013 0.327148
0.687059 0.0742278 0.322305
0.693155 0.0736592 0.333089
0.684688 0.0652024 0.332886
0.682581 0.0740567 0.332923
0.682245 0.0631458 0.326952
0.687159 0.068773 0.324801
0.703175 0.0776737 0.334718
0.706567 0.0639901 0.32945
0.702056 0.0654476 0.337502
0.713103 0.0678558 0.325708
0.716477 0.0674537 0.323353
0.708187 0.0637139 0.320282
0.733865 0.0762005 0.324056
0.726685 0.0741343 0.333968
0.738203 0.0703307 0.338643
0.723248 0.0692427 0.331898
0.73496 0.0667598 0.323013
0.732755 0.0646133 0.32768
0.746235 0.0727687 0.324473
0.753703 0.0738374 0.333643
0.745771 0.0772638 0.321788
0.753486 0.0745938 0.336954
0.75761 0.0750938 0.320275
0.74975 0.0791992 0.336331
0.769042 0.072928 0.323786
0.778027 0.0656982 0.331718
0.760542 0.0612772 0.320323
0.772669 0.0791193 0.336671
0.764811 0.0721927 0.3242
0.776008 0.0728484 0.329461
0.798009 0.0654816 0.333676
0.797606 0.0761903 0.339576
0.79293 0.0628184 0.321354
0.794059 0.0654652 0.325276
0.790906 0.0676069 0.335442
0.799317 0.0796323 0.338328
0.808065 0.0636706 0.324374
0.813401 0.0655356 0.335492
0.808883 0.0608287 0.332982
0.815261 0.0662082 0.323622
0.810832 0.0784874 0.324032
0.81076 0.0752381 0.336373
0.833667 0.0664899 0.333212
0.826876 0.0680769 0.320916
0.831776 0.0764871 0.32574
0.837853 0.0772578 0.326955
0.825248 0.0706314 0.337529
0.830809 0.0632478 0.337585
0.844883 0.0688782 0.338381
0.855677 0.0670983 0.33201
0.855876 0.0752731 0.335647
0.847189 0.0710575 0.339303
0.856186 0.0785098 0.321834
0.855376 0.0637951 0.335397
0.121872 0.0855916 0.320755
0.134334 0.0840349 0.335366
0.129109 0.0995883 0.328831
0.133184 0.0987921 0.332062
0.136017 0.0974692 0.326719
0.138182 0.0915857 0.327328
0.15474 0.0890241 0.330446
0.144703 0.0833177 0.323957
0.140596 0.0930227 0.331512
0.148656 0.0851683 0.326534
0.154006 0.0915279 0.338936
0.157379 0.0814305 0.339438
0.177007 0.0868231 0.33478
0.173811 0.0952949 0.326815
0.166643 0.0915143 0.32776
0.161913 0.0990362 0.336908
0.172414 0.0931036 0.327044
0.178505 0.0817719 0.324724
0.191278 0.097959 0.331554
0.194411 0.0910086 0.329722
0.182387 0.095329 0.325819
0.196866 0.0895251 0.326421
0.183671 0.0938253 0.331013
0.180444 0.080709 0.339459
0.214685 0.0883952 0.327845
0.217907 0.0814016 0.337212
0.219414 0.084718 0.322722
0.212575 0.0875469 0.337152
0.211997 0.0863928 0.339247
0.208022 0.0989044 0.336109
0.225104 0.0984613 0.324354
0.222564 0.099437 0.322577
0.231234 0.0973481 0.322979
0.225076 0.0823711 0.327746
0.234126 0.0949401 0.334116
0.227098 0.0958247 0.327393
0.247881 0.0910959 0.332983
0.258514 0.0888268 0.33618
0.253282 0.0961004 0.336895
0.251297 0.0903669 0.336435
0.255309 0.0906882 0.3339
0.245625 0.0802287 0.328409
0.272193 0.0990909 0.32744
0.279189 0.0849236 0.336781
0.269717 0.0992125 0.337621
0.260655 0.08955 0.330689
0.265151 0.095297 0.334789
0.272512 0.0930451 0.329023
0.292618 0.0877817 0.338532
0.292055 0.0873865 0.321556
0.28555 0.0813691 0.326613
0.298752 0.0978898 0.328861
0.298213 0.0949512 0.326288
0.280997 0.0949185 0.333013
0.305723 0.0909673 0.33363
0.311868 0.0811592 0.327947
0.307648 0.0866368 0.326968
0.309164 0.0972741 0.339511
0.302774 0.0950188 0.330759
0.306304 0.0872792 0.336002
0.331976 0.0948687 0.328802
0.336424 0.0828846 0.323676
0.320452 0.0984965 0.323042
0.322664 0.0810299 0.327122
0.323106 0.0928605 0.335191
0.322762 0.0846972 0.334997
0.341956 0.0957248 0.327556
0.349047 0.092356 0.335819
0.35659 0.0876545 0.334379
0.346065 0.0942515 0.334997
0.345438 0.0874377 0.336067
0.346067 0.098095 0.326233
0.363874 0.0878256 0.333458
0.378348 0.0929465 0.322954
0.371759 0.0903243 0.325089
0.375604 0.092417 0.323814
0.366541 0.0909275 0.329366
0.367247 0.0820801 0.339317
0.394366 0.0968523 0.338106
0.396919 0.0968003 0.332254
0.389437 0.0959524 0.328929
0.399747 0.0824187 0.339283
0.386525 0.0895214 0.339655
0.395596 0.0833345 0.331868
0.405481 0.0870716 0.3294
0.407964 0.0880315 0.335328
0.418474 0.0963913 0.336561
0.402374 0.0992715 0.326899
0.414975 0.0807562 0.326469
0.41506 0.0987252 0.322311
0.433945 0.0822954 0.335766
0.429656 0.0806475 0.336228
0.429692 0.08322 0.331857
0.420894 0.0809244 0.339221
0.422243 0.0923292 0.33906
0.430832 0.0804918 0.335782
0.448248 0.0852345 0.328534
0.45821 0.0897553 0.328189
0.453589 0.085271 0.33296
0.459433 0.0882488 0.327194
0.444065 0.0872476 0.332773
0.444796 0.0909277 0.32533
0.474693 0.0906809 0.336112
0.468349 0.0885055 0.330904
0.477151 0.0884713 0.326137
0.468935 0.085667 0.331538
0.462137 0.0825338 0.336255
0.466009 0.0819664 0.328883
0.49219 0.091889 0.328399
0.48974 0.0839636 0.339155
0.490559 0.0845789 0.332131
0.480866 0.0994693 0.331158
0.480857 0.0881967 0.333416
0.484325 0.0982533 0.321505
0.504284 0.0851696 0.324251
0.51419 0.0942709 0.32576
0.503377 0.0963698 0.328699
0.510547 0.0973797 0.323763
0.511319 0.0868587 0.321635
0.510226 0.0837315 0.322449
0.531229 0.0880111 0.331284
0.521669 0.0934859 0.325962
0.523002 0.0994268 0.33698
0.522329 0.0807966 0.338931
0.533475 0.0981784 0.321587
0.53648 0.0871148 0.331406
0.546042 0.089282 0.32855
0.549486 0.0815413 0.320293
0.543926 0.0879618 0.333587
0.559242 0.0992715 0.328363
0.549477 0.0987582 0.323137
0.541044 0.0912718 0.321475
0.578997 0.0978624 0.323448
0.573754 0.0882808 0.325045
0.571754 0.0878213 0.32185
0.577553 0.0872336 0.336105
0.561227 0.0851418 0.331745
0.56893 0.095965 0.327387
0.583729 0.0924953 0.33364
0.5876 0.0955248 0.332853
0.588943 0.0892812 0.338817
0.593906 0.0843269 0.336958
0.589095 0.0908761 0.329406
0.583147 0.0961869 0.338138
0.606203 0.0811824 0.327081
0.609374 0.0971427 0.336284
0.618893 0.0853573 0.333564
0.606764 0.0857032 0.331152
0.600578 0.0848649 0.323096
0.615361 0.096256 0.336652
0.637586 0.0935367 0.334506
0.622372 0.0830059 0.332016
0.621056 0.0888863 0.329538
0.626032 0.0896702 0.325776
0.633057 0.0851249 0.332517
0.622635 0.0976837 0.328346
0.649386 0.0808751 0.325497
0.641105 0.0881421 0.331461
0.653321 0.0874296 0.332895
0.642721 0.0915079 0.335421
0.651902 0.0921169 0.326347
0.652449 0.0805471 0.330348
0.676674 0.0944978 0.333025
0.668839 0.0952762 0.32786
0.678845 0.0811504 0.336591
0.670538 0.0817427 0.334608
0.671315 0.0812875 0.32876
0.672777 0.0889284 0.321094
0.695167 0.089603 0.336538
0.681365 0.0922292 0.328402
0.699655 0.0947882 0.334048
0.690844 0.0810952 0.321309
0.683743 0.0825276 0.327902
0.698231 0.0846224 0.329273
0.713653 0.0967267 0.335161
0.704376 0.0952199 0.321891
0.709543 0.0895396 0.327093
0.704484 0.0857515 0.323182
0.706043 0.0894375 0.33353
0.717452 0.0825595 0.331404
0.733246 0.093053 0.338662
0.736684 0.0905799 0.339564
0.72031 0.083793 0.325756
0.722446 0.080213 0.334477
0.720551 0.0827162 0.324393
0.737627 0.0873731 0.338603
0.754999 0.0940174 0.330425
0.74395 0.098364 0.335162
0.749469 0.0896121 0.32648
0.750457 0.0970699 0.329448
0.740451 0.085101 0.322394
0.746523 0.0962331 0.334042
0.779291 0.0856987 0.321803
0.766373 0.0836147 0.325175
0.770312 0.0807305 0.331093
0.760318 0.0851179 0.336312
0.774531 0.0905149 0.320799
0.768282 0.0892929 0.328243
0.799194 0.0886926 0.339031
0.794403 0.0913386 0.331133
0.785811 0.0843409 0.32508
0.798039 0.0873068 0.334707
0.788799 0.0955946 0.332111
0.782709 0.0929697 0.337329
0.814101 0.0836731 0.329576
0.810471 0.0875672 0.33549
0.803018 0.0861396 0.339514
0.807963 0.0845091 0.327915
0.811433 0.0941239 0.338021
0.800886 0.0871014 0.333564
0.826575 0.0833641 0.338511
0.831399 0.083679 0.325176
0.836553 0.0932923 0.330661
0.830363 0.0815636 0.338523
0.820768 0.0832545 0.33917
0.821762 0.0861495 0.320862
0.845631 0.0892709 0.33313
0.856133 0.099322 0.331691
0.858183 0.0920814 0.339159
0.858413 0.0937796 0.321613
0.843435 0.0952269 0.33695
0.858566 0.0920504 0.336633
0.870842 0.0907261 0.334515
0.868359 0.0945991 0.333424
0.877781 0.0921022 0.328443
0.860889 0.0876272 0.336377
0.864947 0.0861482 0.339336
0.870912 0.098358 0.337398
0.115875 0.117783 0.330358
0.117878 0.103153 0.321101
0.114279 0.101342 0.334331
0.119407 0.117966 0.338375
0.106823 0.108087 0.328005
0.118866 0.104256 0.330907
0.126306 0.117266 0.334973
0.122624 0.113636 0.339102
0.127981 0.100625 0.338489
0.136315 0.112284 0.320863
0.139789 0.11657 0.330304
0.123145 0.113484 0.335763
0.156528 0.119502 0.336937
0.158784 0.116648 0.334619
0.144468 0.102072 0.334696
0.15269 0.119233 0.322667
0.143954 0.115508 0.323189
0.154574 0.10776 0.339456
0.174375 0.10384 0.328975
0.163956 0.117833 0.336646
0.167438 0.11279 0.33061
0.177026 0.117535 0.326489
0.179648 0.103381 0.329264
0.162676 0.113544 0.329489
0.186688 0.11488 0.330528
0.190218 0.105896 0.336347
0.193359 0.10648 0.322144
0.184508 0.101848 0.32193
0.185483 0.116778 0.325676
0.186105 0.117449 0.335176
0.213937 0.10426 0.330809
0.21414 0.109019 0.339629
0.21936 0.107679 0.32975
0.218347 0.103005 0.321048
0.202515 0.102184 0.324893
0.21643 0.114197 0.336281
0.238222 0.114387 0.323476
0.225487 0.103466 0.328197
0.239495 0.101265 0.336821
0.22722 0.102357 0.336782
0.236573 0.114736 0.322555
0.222362 0.104034 0.32798
0.241825 0.117549 0.324517
0.247137 0.107252 0.324623
0.242042 0.101416 0.321164
0.243195 0.10716 0.322255
0.256972 0.116812 0.338634
0.250294 0.105073 0.321411
0.268213 0.117203 0.32937
0.279455 0.116908 0.331814
0.267479 0.10381 0.322049
0.27418 0.119531 0.333505
0.273882 0.103347 0.32577
0.276558 0.105239 0.323533
0.298238 0.10818 0.32385
0.296314 0.110597 0.331001
0.289466 0.106332 0.327694
0.284536 0.104819 0.327732
0.28156 0.114843 0.339369
0.291005 0.107587 0.328736
0.300988 0.110301 0.338554
0.305414 0.118628 0.322104
0.301376 0.107718 0.333524
0.311785 0.107149 0.332587
0.306131 0.116371 0.33342
0.314045 0.106927 0.332775
0.335058 0.111714 0.320503
0.3326 0.116745 0.321929
0.337205 0.106419 0.326178
0.3382 0.110278 0.331452
0.332772 0.117857 0.334473
0.324625 0.115144 0.321953
0.352028 0.116813 0.32446
0.341215 0.116432 0.329664
0.353474 0.118126 0.337629
0.344728 0.116202 0.335109
0.344371 0.103462 0.330542
0.342684 0.115484 0.329607
0.365282 0.116683 0.323875
0.370471 0.105983 0.33755
0.374525 0.103203 0.33945
0.371299 0.101525 0.322588
0.373767 0.110436 0.338953
0.367976 0.114791 0.333738
0.386269 0.118022 0.333122
0.385259 0.119183 0.326244
0.38769 0.109715 0.334314
0.38257 0.109643 0.328393
0.384979 0.113447 0.338698
0.396875 0.114478 0.332949
0.414934 0.107758 0.325725
0.408502 0.103647 0.320971
0.403393 0.102248 0.331451
0.403512 0.102247 0.322254
0.407688 0.101026 0.327815
0.40964 0.105308 0.328867
0.432947 0.113318 0.321845
0.422901 0.101502 0.339013
0.428734 0.112745 0.326162
0.420469 0.107627 0.333244
0.43546 0.101296 0.331828
0.420213 0.119304 0.329798
0.448914 0.117492 0.323505
0.454672 0.110928 0.327642
0.45488 0.119452 0.337178
0.457098 0.114769 0.327108
0.458955 0.116101 0.338755
0.457815 0.112185 0.333988
0.472991 0.101015 0.320333
0.462986 0.113003 0.326635
0.463657 0.103831 0.325941
0.478782 0.102437 0.327095
0.477914 0.116254 0.326567
0.462564 0.112911 0.325788
0.480271 0.103156 0.33344
0.487877 0.10618 0.331621
0.487194 0.116228 0.334
0.487459 0.111675 0.339404
0.494135 0.101583 0.330484
0.487341 0.101119 0.330254
0.516938 0.117784 0.326276
0.510627 0.116648 0.336886
0.513124 0.111275 0.326726
0.512035 0.10063 0.329744
0.519728 0.110952 0.332565
0.506072 0.100344 0.328673
0.527878 0.118684 0.336586
0.524206 0.102268 0.339426
0.537903 0.103845 0.337171
0.520937 0.116044 0.32069
0.527156 0.102273 0.331639
0.534875 0.117088 0.32523
0.548785 0.112163 0.327676
0.544631 0.111911 0.322394
0.553782 0.103763 0.32344
0.54802 0.118484 0.334731
0.54943 0.101741 0.338594
0.546937 0.102404 0.326183
0.574658 0.116253 0.324706
0.579065 0.100984 0.326136
0.567507 0.10605 0.335039
0.566152 0.106586 0.322778
0.57737 0.110423 0.335985
0.5738 0.117412 0.338529
0.585854 0.119071 0.320468
0.593988 0.108136 0.336715
0.589523 0.100865 0.322058
0.587749 0.115512 0.327171
0.580711 0.114686 0.338416
0.582842 0.113077 0.337851
0.619435 0.1186 0.325541
0.610336 0.101018 0.327607
0.609259 0.105336 0.323722
0.610501 0.117361 0.334996
0.617594 0.106465 0.337361
0.619594 0.1122 0.339307
0.628546 0.107372 0.33913
0.623217 0.114691 0.329419
0.625888 0.113664 0.330529
0.620862 0.11102 0.32435
0.620941 0.115252 0.333761
0.624518 0.118237 0.337028
0.652792 0.106611 0.338634
0.658548 0.107215 0.324097
0.641974 0.10522 0.339729
0.644179 0.110409 0.327639
0.643755 0.108189 0.326904
0.647318 0.106692 0.331504
0.662893 0.103239 0.332885
0.661338 0.103227 0.328729
0.673841 0.111088 0.339704
0.666119 0.111907 0.321666
0.672825 0.108087 0.321167
0.661401 0.115125 0.321235
0.695377 0.103209 0.336816
0.699068 0.114839 0.335791
0.696054 0.11233 0.328995
0.698562 0.119578 0.333567
0.68625 0.115748 0.321292
0.682591 0.11966 0.322349
0.705336 0.114236 0.32238
0.718852 0.107593 0.326957
0.718756 0.106298 0.326777
0.700806 0.110325 0.336301
0.713169 0.113617 0.320428
0.706555 0.107558 0.320968
0.738522 0.103043 0.325028
0.722304 0.10276 0.32863
0.733474 0.103348 0.336328
0.736393 0.117422 0.324131
0.723353 0.10929 0.324683
0.730792 0.100663 0.332507
0.759124 0.117579 0.336716
0.75272 0.10938 0.334786
0.759025 0.102428 0.336928
0.740778 0.100311 0.332475
0.75562 0.10071 0.325896
0.758736 0.110829 0.334878
0.77852 0.10197 0.323456
0.769213 0.11489 0.329325
0.778273 0.103486 0.332999
0.763967 0.109508 0.325893
0.77089 0.101747 0.335848
0.766544 0.105245 0.338437
0.796404 0.111767 0.324584
0.794048 0.113518 0.333188
0.794518 0.113757 0.320343
0.784729 0.103647 0.323566
0.787617 0.1062 0.333772
0.793844 0.101643 0.322656
0.818195 0.108342 0.326289
0.812477 0.116468 0.330577
0.815442 0.103853 0.33234
0.808996 0.110861 0.331604
0.814101 0.106647 0.338974
0.812058 0.119799 0.333606
0.832876 0.116724 0.324496
0.831012 0.103117 0.328083
0.831034 0.113291 0.337384
0.832094 0.108626 0.336023
0.830329 0.106836 0.323965
0.822545 0.102296 0.330578
0.846202 0.119642 0.338701
0.84699 0.107482 0.322365
0.84905 0.112718 0.334999
0.855598 0.106927 0.32026
0.848529 0.112878 0.329298
0.84792 0.104092 0.335904
0.86305 0.109702 0.335526
0.871388 0.115176 0.336447
0.865499 0.10504 0.322586
0.870655 0.102058 0.327908
0.874555 0.108251 0.329365
0.873152 0.117055 0.325601
0.898216 0.107279 0.328848
0.892354 0.11158 0.326224
0.885825 0.119787 0.32173
0.888758 0.104761 0.338258
0.88083 0.108844 0.331348
0.886214 0.108836 0.321389
0.0834315 0.138321 0.325374
0.0907063 0.124609 0.331873
0.0978592 0.132051 0.322796
0.0996795 0.137673 0.336464
0.0970251 0.13363 0.339799
0.0828678 0.125897 0.323538
0.118643 0.1241 0.321563
0.112492 0.128889 0.330668
0.114526 0.128502 0.338641
0.112924 0.128045 0.323771
0.113235 0.128702 0.337799
0.1163 0.125878 0.326157
0.120402 0.122831 0.336362
0.134975 0.132834 0.322489
0.135374 0.136243 0.329687
0.129737 0.128503 0.339063
0.130808 0.123758 0.334231
0.127295 0.124293 0.329462
0.141657 0.1287 0.333913
0.150441 0.129096 0.335445
0.155251 0.139212 0.329099
0.15532 0.137212 0.321426
0.14917 0.134282 0.320674
0.157751 0.12023 0.332002
0.164659 0.137958 0.327652
0.16771 0.13145 0.330333
0.173776 0.130579 0.336626
0.16881 0.135009 0.338633
0.166695 0.13503 0.32948
0.165507 0.133662 0.3314
0.186492 0.136108 0.328218
0.189154 0.133047 0.337678
0.181962 0.126685 0.328368
0.182475 0.125588 0.324664
0.1939 0.137043 0.332551
0.196715 0.124438 0.322964
0.207729 0.124134 0.320439
0.201339 0.126781 0.326016
0.212367 0.126426 0.321975
0.206903 0.13339 0.327347
0.21287 0.131213 0.339505
0.203071 0.135886 0.321225
0.226289 0.126543 0.328219
0.230971 0.123096 0.322103
0.239153 0.122283 0.327047
0.224242 0.124308 0.327458
0.232889 0.121398 0.331643
0.229507 0.127757 0.327724
0.240915 0.138595 0.323718
0.244109 0.132808 0.331926
0.258681 0.12828 0.335864
0.254275 0.122567 0.323506
0.253888 0.126351 0.339472
0.25747 0.126977 0.326258
0.263287 0.128879 0.323728
0.267172 0.138144 0.329645
0.275046 0.139206 0.320807
0.278658 0.136744 0.336277
0.277412 0.133416 0.321652
0.263525 0.13095 0.337675
0.296498 0.13629 0.339439
0.291565 0.128518 0.326097
0.288706 0.123039 0.337958
0.288397 0.12838 0.325741
0.284647 0.137907 0.332616
0.295644 0.134395 0.322886
0.306564 0.139101 0.322315
0.30804 0.137457 0.336621
0.304418 0.135666 0.335547
0.306279 0.128081 0.335177
0.314813 0.127025 0.328466
0.315417 0.122641 0.33419
0.33122 0.139138 0.330832
0.334709 0.13468 0.325204
0.327768 0.126283 0.328756
0.323764 0.129498 0.335781
0.335975 0.127011 0.321809
0.322661 0.127859 0.337028
0.349403 0.129624 0.329102
0.355189 0.131572 0.327604
0.34377 0.133953 0.339509
0.341301 0.12879 0.325635
0.347936 0.122673 0.338311
0.345657 0.138776 0.333982
0.378711 0.124484 0.331502
0.362257 0.128452 0.322127
0.36634 0.13766 0.324312
0.36036 0.120572 0.33351
0.365716 0.122383 0.336118
0.371532 0.127887 0.337102
0.39799 0.129318 0.329426
0.383684 0.132688 0.331021
0.383849 0.133627 0.331623
0.39615 0.137335 0.335326
0.396523 0.123452 0.330547
0.399236 0.131079 0.335185
0.40071 0.127886 0.339079
0.416334 0.135242 0.33214
0.409744 0.122774 0.324567
0.411226 0.128037 0.336539
0.417575 0.122805 0.326132
0.405099 0.125299 0.320247
0.438566 0.126309 0.327409
0.433133 0.125138 0.320443
0.433189 0.12676 0.336143
0.436021 0.132335 0.337507
0.432591 0.138204 0.33248
0.43921 0.139052 0.330545
0.447554 0.123342 0.332861
0.452159 0.127026 0.33257
0.45824 0.137148 0.320463
0.458982 0.138574 0.32202
0.459294 0.12656 0.333408
0.451322 0.131046 0.3233
0.474487 0.124593 0.325446
0.467912 0.133521 0.33775
0.471338 0.126377 0.321716
0.472127 0.13738 0.333684
0.472305 0.136615 0.332902
0.475584 0.125457 0.330985
0.485808 0.126489 0.322697
0.486505 0.127758 0.321454
0.497754 0.124547 0.337569
0.49088 0.138337 0.333367
0.493174 0.122363 0.323622
0.48169 0.129667 0.322561
0.516805 0.137454 0.33954
0.511674 0.134481 0.331335
0.509512 0.13735 0.329404
0.51724 0.135594 0.329644
0.511429 0.138636 0.338237
0.515395 0.124249 0.3287
0.530226 0.124138 0.324124
0.523882 0.138033 0.321826
0.531845 0.123543 0.331611
0.522922 0.127904 0.336798
0.530929 0.136855 0.329458
0.528618 0.121488 0.338404
0.558593 0.137331 0.328958
0.547012 0.126043 0.331915
0.549196 0.123977 0.329734
0.544569 0.133255 0.331431
0.547113 0.122153 0.337988
0.555114 0.126303 0.335199
0.572856 0.137293 0.331222
0.566455 0.124804 0.338463
0.562864 0.137748 0.324607
0.56528 0.133653 0.333425
0.561558 0.128572 0.339761
0.568058 0.127334 0.327903
0.591496 0.126684 0.334139
0.589716 0.12389 0.322672
0.597664 0.130966 0.323748
0.590384 0.12683 0.334788
0.591922 0.128506 0.331103
0.586861 0.126169 0.330325
0.613742 0.132363 0.336567
0.605161 0.123328 0.33136
0.612146 0.124884 0.32308
0.619476 0.128576 0.338016
0.610668 0.133502 0.321831
0.605521 0.136863 0.32724
0.633083 0.139398 0.327721
0.634383 0.134406 0.32763
0.631024 0.12751 0.336578
0.625803 0.137075 0.325593
0.632595 0.134176 0.339155
0.620345 0.130663 0.331656
0.646102 0.130839 0.339598
0.659246 0.126174 0.338686
0.656336 0.126638 0.331834
0.650571 0.122458 0.339557
0.654011 0.129683 0.330304
0.650282 0.13774 0.336555
0.677525 0.133622 0.336498
0.675032 0.13026 0.337252
0.672204 0.12376 0.331847
0.678267 0.135838 0.320959
0.678103 0.124455 0.324333
0.665297 0.135233 0.339561
0.686076 0.135102 0.338127
0.680602 0.124992 0.332052
0.685987 0.136681 0.32518
0.687634 0.137165 0.327593
0.686356 0.127387 0.322223
0.686417 0.137297 0.332662
0.705573 0.132454 0.321726
0.716066 0.137323 0.336356
0.714712 0.127824 0.334464
0.718887 0.136219 0.333606
0.701329 0.135429 0.330543
0.714571 0.131963 0.322216
0.738658 0.138949 0.322592
0.732655 0.13848 0.324723
0.726645 0.133249 0.332856
0.72299 0.137429 0.328373
0.726229 0.133233 0.330907
0.724051 0.123507 0.337564
0.758038 0.121326 0.334328
0.749464 0.133551 0.332683
0.749727 0.137738 0.329346
0.757441 0.136935 0.324003
0.756613 0.128712 0.324448
0.754352 0.121539 0.335771
0.772587 0.123661 0.321996
0.769718 0.132666 0.32385
0.775445 0.137294 0.325226
0.777105 0.120931 0.324756
0.764731 0.136113 0.323016
0.778223 0.13909 0.328438
0.790868 0.138761 0.332121
0.784519 0.120293 0.339073
0.785152 0.138215 0.332023
0.793246 0.132174 0.324338
0.781622 0.128287 0.323117
0.794831 0.127184 0.324195
0.812759 0.120524 0.322987
0.805571 0.129143 0.331263
0.81846 0.136599 0.331354
0.817959 0.120616 0.330326
0.800537 0.136937 0.335047
0.816184 0.128315 0.323499
0.830454 0.135712 0.327453
0.831178 0.136849 0.327321
0.822953 0.124981 0.320657
0.839341 0.123087 0.332981
0.83761 0.13859 0.330481
0.833176 0.123979 0.339679
0.855916 0.120597 0.321842
0.853894 0.125304 0.336114
0.846397 0.123169 0.323298
0.853145 0.137229 0.321935
0.858317 0.135815 0.327818
0.842176 0.123074 0.320516
0.863368 0.133922 0.327117
0.862519 0.128895 0.320778
0.870205 0.1386 0.331355
0.870232 0.129607 0.33889
0.862186 0.139502 0.325872
0.863989 0.125145 0.334283
0.895099 0.133193 0.33223
0.885695 0.130969 0.338019
0.890782 0.124202 0.327916
0.895672 0.131185 0.320552
0.887816 0.125011 0.335299
0.880626 0.132973 0.330454
0.917991 0.132476 0.333781
0.913194 0.124391 0.337102
0.918933 0.13947 0.330669
0.90814 0.13725 0.335029
0.916772 0.12783 0.323716
0.917408 0.127542 0.327799
0.088457 0.144049 0.324661
0.0986521 0.149439 0.336208
0.0878723 0.159421 0.336904
0.09918 0.146692 0.338796
0.0926916 0.157035 0.325024
0.0933626 0.149386 0.328234
0.109436 0.15739 0.32966
0.103336 0.151805 0.323345
0.101729 0.15621 0.324297
0.113419 0.149597 0.33459
0.101942 0.144547 0.324274
0.10811 0.158638 0.324354
0.13625 0.158131 0.337522
0.128364 0.1452 0.324906
0.137912 0.145767 0.335956
0.135675 0.158718 0.338599
0.135047 0.143961 0.335692
0.123842 0.151499 0.324863
0.15411 0.153856 0.331729
0.147533 0.154045 0.320672
0.152012 0.143342 0.327414
0.144043 0.147602 0.329698
0.143227 0.154865 0.337127
0.143688 0.141232 0.323683
0.161382 0.144456 0.335747
0.164068 0.153177 0.332311
0.160455 0.148643 0.326017
0.173715 0.151099 0.323823
0.176248 0.153682 0.330726
0.162502 0.149627 0.330909
0.181054 0.148321 0.324642
0.196503 0.148859 0.3383
0.194378 0.149328 0.320282
0.180219 0.148753 0.324736
0.197291 0.141569 0.325447
0.198181 0.152754 0.325716
0.202241 0.144046 0.338975
0.218309 0.156619 0.338858
0.21166 0.151937 0.336915
0.215433 0.150235 0.331263
0.216054 0.142298 0.338623
0.217555 0.141347 0.325976
0.235212 0.154774 0.331958
0.228321 0.144748 0.328076
0.231799 0.145029 0.322933
0.220922 0.15742 0.329047
0.2364 0.155189 0.337405
0.237541 0.155222 0.324492
0.258937 0.146566 0.334649
0.244002 0.143037 0.330618
0.255728 0.152372 0.326
0.246955 0.14085 0.327388
0.244843 0.154504 0.332283
0.252255 0.144534 0.323634
0.264581 0.151562 0.323314
0.272817 0.155514 0.323809
0.27962 0.157931 0.321797
0.278132 0.142035 0.320602
0.276337 0.152384 0.32339
0.273789 0.154636 0.338986
0.285879 0.14529 0.324407
0.280379 0.142534 0.32145
0.291461 0.159007 0.331501
0.284048 0.145395 0.320682
0.280603 0.157151 0.324467
0.297198 0.146336 0.337786
0.300829 0.158781 0.321539
0.302678 0.159474 0.327409
0.308679 0.150771 0.322392
0.311176 0.141386 0.328548
0.317793 0.154297 0.336447
0.314711 0.147058 0.336742
0.334781 0.159339 0.333082
0.333596 0.145672 0.333821
0.327932 0.148223 0.327225
0.320898 0.141956 0.320775
0.335607 0.153877 0.322671
0.333678 0.152881 0.334845
0.350255 0.157267 0.323301
0.347999 0.142039 0.329126
0.351136 0.144161 0.322187
0.343541 0.141563 0.323986
0.352039 0.156137 0.338679
0.355597 0.155328 0.322233
0.369637 0.156775 0.32302
0.366378 0.158592 0.321241
0.367472 0.145149 0.33885
0.375872 0.145404 0.33726
0.36852 0.146614 0.338571
0.376657 0.149718 0.334897
0.393879 0.15468 0.328617
0.38352 0.158177 0.333091
0.380686 0.157896 0.331659
0.38524 0.152321 0.322017
0.383479 0.157565 0.326422
0.395155 0.141553 0.331705
0.408263 0.145504 0.337296
0.400657 0.143816 0.338886
0.418962 0.14594 0.320457
0.419278 0.155534 0.334648
0.410219 0.149188 0.325958
0.417957 0.151505 0.323591
0.422825 0.143684 0.32699
0.427302 0.14186 0.336646
0.426086 0.152977 0.331319
0.42038 0.144798 0.336172
0.430889 0.145702 0.338448
0.433255 0.149553 0.339603
0.459346 0.143653 0.333503
0.44718 0.14244 0.321959
0.457724 0.151607 0.324389
0.452 0.146961 0.32152
0.452942 0.154802 0.321792
0.459023 0.147457 0.321716
0.477466 0.152994 0.320829
0.472952 0.149411 0.329234
0.478992 0.154768 0.328709
0.472177 0.158308 0.338979
0.465434 0.144983 0.323835
0.468367 0.145593 0.328572
0.489683 0.15191 0.327366
0.485686 0.142907 0.338565
0.496792 0.144028 0.329055
0.48451 0.151386 0.325689
0.491684 0.158366 0.338619
0.484627 0.146376 0.328775
0.516683 0.154751 0.330489
0.517304 0.155284 0.320666
0.519258 0.157383 0.331491
0.507895 0.141782 0.3303
0.503072 0.150907 0.323046
0.510345 0.14052 0.33454
0.527295 0.145202 0.334911
0.539592 0.155399 0.339631
0.532069 0.155436 0.337231
0.538528 0.152002 0.337498
0.534204 0.151957 0.334546
0.539529 0.146448 0.321094
0.544689 0.155439 0.338473
0.555657 0.145549 0.3252
0.55046 0.157997 0.331732
0.558205 0.15031 0.338099
0.548764 0.152707 0.326354
0.543805 0.143913 0.325816
0.578455 0.14597 0.321923
0.573914 0.145935 0.327487
0.571705 0.155057 0.323896
0.561099 0.14353 0.334089
0.57726 0.158053 0.32858
0.571278 0.158381 0.337698
0.597977 0.153256 0.321333
0.593361 0.147821 0.32832
0.583995 0.142348 0.334455
0.597814 0.140824 0.32402
0.592678 0.142714 0.32608
0.593052 0.155157 0.339653
0.604304 0.159247 0.324057
0.600883 0.157109 0.332446
0.613192 0.159014 0.33325
0.616375 0.143279 0.325256
0.605142 0.154963 0.335045
0.618339 0.144386 0.321539
0.631131 0.146341 0.326277
0.637515 0.145775 0.329241
0.628064 0.143504 0.32185
0.631275 0.151223 0.332971
0.639728 0.145638 0.326923
0.638023 0.146955 0.332689
0.657485 0.142725 0.3269
0.645061 0.146483 0.335222
0.65618 0.144353 0.328696
0.656035 0.152837 0.323017
0.643096 0.140625 0.327728
0.642498 0.159107 0.321405
0.669765 0.142421 0.322897
0.660943 0.159321 0.330667
0.676205 0.147629 0.327743
0.663646 0.143495 0.339617
0.664595 0.146772 0.339041
0.671706 0.155818 0.338066
0.692779 0.140373 0.320298
0.693787 0.147608 0.321338
0.688636 0.149604 0.321399
0.692234 0.14519 0.339256
0.688185 0.15515 0.32631
0.68859 0.1585 0.321633
0.705489 0.145575 0.332553
0.711475 0.143192 0.323099
0.718422 0.153072 0.322386
0.711548 0.140571 0.338066
0.717891 0.155917 0.33389
0.718025 0.140523 0.332355
0.723087 0.154202 0.325476
0.733439 0.148456 0.33441
0.730788 0.147473 0.329097
0.721358 0.140361 0.339547
0.731806 0.141841 0.33601
0.73209 0.142313 0.339339
0.741325 0.158378 0.335501
0.742286 0.14133 0.323326
0.748727 0.145072 0.321104
0.759114 0.144139 0.339468
0.745648 0.143686 0.328765
0.740532 0.152232 0.3319
0.769657 0.145096 0.328153
0.760868 0.148347 0.321898
0.770628 0.146162 0.331342
0.777349 0.157676 0.320989
0.767403 0.157221 0.327422
0.771947 0.148601 0.336625
0.788146 0.156657 0.326055
0.787539 0.140952 0.323525
0.791805 0.148083 0.332016
0.780456 0.140561 0.334208
0.793885 0.143469 0.339238
0.794129 0.150249 0.337922
0.802924 0.148489 0.337769
0.819351 0.156877 0.32127
0.802583 0.159449 0.32548
0.814574 0.151193 0.329413
0.800267 0.158085 0.333415
0.808726 0.145886 0.326156
0.833669 0.151191 0.339179
0.832813 0.155255 0.337971
0.839557 0.143325 0.321904
0.838603 0.153108 0.337191
0.827975 0.159472 0.335424
0.825749 0.140598 0.324896
0.849382 0.150924 0.326653
0.847582 0.158185 0.331673
0.85204 0.140755 0.328129
0.857329 0.153836 0.334239
0.847683 0.157306 0.329225
0.851228 0.157866 0.332736
0.868378 0.145581 0.329301
0.866622 0.147746 0.322283
0.879124 0.152902 0.329787
0.879242 0.143995 0.331923
0.862884 0.159139 0.3321
0.861565 0.158095 0.324943
0.895278 0.15223 0.321661
0.88502 0.140725 0.334242
0.889488 0.148011 0.32218
0.897866 0.1456 0.337751
0.888411 0.155309 0.328242
0.895804 0.145912 0.322827
0.916854 0.149413 0.324559
0.917035 0.146328 0.328834
0.911749 0.151382 0.337589
0.919029 0.146815 0.331672
0.912286 0.140758 0.337573
0.90378 0.151435 0.327969
0.226563 0.0302592 0.352092
0.226176 0.0314742 0.355045
0.224102 0.0341903 0.35461
0.235416 0.0353199 0.345713
0.233381 0.0392337 0.353507
0.228548 0.0379853 0.344215
0.240414 0.0302406 0.355631
0.245774 0.0261633 0.343129
0.255921 0.0364524 0.348409
0.244187 0.0215664 0.343572
0.251238 0.0259593 0.352871
0.246694 0.0208881 0.349301
0.278729 0.0314627 0.358113
0.271961 0.0209585 0.343479
0.266322 0.0315504 0.341535
0.263345 0.0347192 0.350624
0.278276 0.0353054 0.340738
0.268579 0.0335866 0.352889
